-8.645955180432089549e+01 1.063106985191872056e+01 7.792562873263893242e-02
-8.643118156589171974e+01 1.066084296615602156e+01 6.248195253125887749e-01
-8.640267585722237698e+01 1.069075274417962973e+01 6.838811140877012473e-01
-8.637437776392778233e+01 1.072043919959981295e+01 5.709248863601448232e-01
-8.634637669714579999e+01 1.074980865836314337e+01 6.173394460940999640e-01
-8.631852433492393573e+01 1.077901679757314568e+01 6.157199517496568797e-01
-8.629096998977213673e+01 1.080790714364239236e+01 6.675336404351440711e-01
-8.626374504674970467e+01 1.083644694837897049e+01 5.612044239868884121e-01
-8.623683421945941063e+01 1.086465239899843027e+01 5.742760461031998220e-01
-8.621018812356378191e+01 1.089257539929751140e+01 5.880092841476493026e-01
-8.618367556881919711e+01 1.092035351907234464e+01 9.517935108593338078e-02
-8.615719757784880528e+01 1.094809048891474212e+01 1.889967920459837691e-01
-8.613069102741181382e+01 1.097585241682393153e+01 4.369687735661478140e-02
-8.610410460651912956e+01 1.100369299506360576e+01 5.434273267808272662e-02
-8.607738085217636126e+01 1.103167231727222131e+01 3.131136850482168360e-02
-8.605041176639039691e+01 1.105990332725946246e+01 1.079498861728464654e+00
-8.553879883715077881e+01 9.926565493234010162e+00 1.532983440640780515e-01
-8.562608166022101841e+01 1.069722496950730495e+01 1.106753200753658323e-01
-8.609046477089866301e+01 1.026748139917097902e+01 1.242563151955233397e-01
-8.477503615544642912e+01 9.906325813379226020e+00 1.023130571532002431e-01
-8.518980338816166409e+01 9.431475980033507511e+00 1.331570065143023729e-01
-8.595565430365439852e+01 9.884455745316271802e+00 6.660525796545631039e-01
-8.556363266197367068e+01 9.503228622299181083e+00 7.765430960982785957e-02
-8.570540112049617676e+01 1.026420031034199098e+01 6.350355643183681897e-02
-8.518622195923011020e+01 9.787785480764895851e+00 8.933901236405324131e-02
-8.483637469630677685e+01 9.498337002140889496e+00 1.038970992240953739e-01
-8.538518087755258534e+01 9.331136206266874566e+00 1.540037872915852868e-01
-8.617829019663072643e+01 1.006821686003340055e+01 1.640234690156500696e-01
-8.587762582765401476e+01 1.050635988008443533e+01 1.889693000270329659e-01
-8.596292395224034522e+01 1.070169935434858210e+01 1.942328613355547573e-01
-8.653533153111804666e+01 1.011472125854766269e+01 1.794657189878638981e-01
-8.625479264379588074e+01 1.030559719711202327e+01 1.934107315133937466e-01
-8.611421241463089871e+01 1.052968056659315721e+01 2.331784263683250868e-01
-8.531028775679662601e+01 8.979986991558499554e+00 1.902642861979778055e-01
-8.513229449548660455e+01 9.266164395838620393e+00 1.781754950819638972e-01
-8.492050098148362736e+01 9.416117741645630090e+00 5.201810865435592124e-01
-8.591959463872949243e+01 9.520668852047329267e+00 4.050869746782503333e-01
-8.574428298402754933e+01 9.840942001626396873e+00 4.025695279874011434e-01
-8.578637431473214292e+01 1.012813726173872908e+01 3.937950293606994334e-01
-8.519295174553109007e+01 1.005162698457140635e+01 3.813790516747488368e-01
-8.545672438281786754e+01 1.011084305006183826e+01 3.625964295461742148e-01
-8.603338006379584613e+01 1.026965860681944775e+01 8.701038658511395241e-02
-8.490385300633433019e+01 9.773391509762738849e+00 8.234363653410829986e-01
-8.453872328466580655e+01 9.605436867969169512e+00 5.801406897968040821e-02
-8.538524881627404284e+01 9.799391752487739637e+00 5.252182104428080450e-02
-8.530208014759493551e+01 9.671293716335819468e+00 6.121064474458985660e-02
-8.558211388707822209e+01 1.047120108463305677e+01 5.031376267820820286e-02
-8.575678865411190088e+01 9.624309374599443245e+00 5.111901297067910493e-02
-8.556611221738626227e+01 9.713062839406649829e+00 5.730338979840830793e-02
-8.647231216638265039e+01 1.029989228096700771e+01 5.093178712852158146e-02
-8.512600457967869261e+01 9.053820500129994286e+00 1.553026166929072187e-02
-8.600281958544283611e+01 1.003699106702346100e+01 2.136851901866241091e-02
-8.586643503367035635e+01 1.025002949885051784e+01 4.901849704167699634e-02
-8.618746483870441466e+01 9.723037974610656775e+00 1.940649466484108132e-02
-8.638690565180741032e+01 9.907292038391508626e+00 2.529431894542231718e-01
-8.590162232958437016e+01 9.788958254425505601e+00 2.921851755525610092e-02
-8.499367319768592210e+01 9.653473833738361876e+00 4.006095741439135577e-02
-8.504049121323153315e+01 9.874341357484325954e+00 2.518056655731424134e-02
-8.574651576053310009e+01 9.430738533070675444e+00 1.256851977856444924e-01
-8.565833567164771978e+01 9.217354930482734687e+00 6.235341727261800582e-02
-8.549403004667438211e+01 9.071444643350165649e+00 6.978863070106897104e-02
-8.629150038638186970e+01 1.050671599342376972e+01 6.422224126017250789e-02
-8.492789821584118215e+01 9.244766412546427503e+00 5.822085873723204658e-02
-8.617810999422310658e+01 9.900880668823596409e+00 5.869315269579339356e-02
-8.574451644827421148e+01 1.063109056447714806e+01 1.302757139274349107e+00
-8.584156352141219770e+01 1.086735274782650684e+01 2.814983962018961505e-01
-8.573256209466470068e+01 9.955715073182068053e+00 6.085438205317302701e-02
-8.635517588501376451e+01 1.014507514099021712e+01 8.792745990111755505e-02
-8.528840439441222543e+01 9.158874275021217315e+00 6.363063148398739877e-02
-8.531303341514679062e+01 1.035371954707894737e+01 6.373326793223367537e-02
-8.538602969157319933e+01 9.952898224712400932e+00 6.057416313881335695e-02
-8.574877182149181465e+01 1.032124095700121913e+01 6.419488227697328631e-02
-8.473823305642642367e+01 9.625898678983233481e+00 6.229217062014664325e-02
-8.535581386300901841e+01 9.549338348538494614e+00 2.200670414995266055e-01
-8.615181003396372716e+01 1.042014974803285732e+01 2.067905931182314749e-01
-8.502479524777737652e+01 9.383823255127913043e+00 2.793921945061229040e-01
-8.506596750440628796e+01 9.612473151109236724e+00 2.681087715123592896e-01
-8.603861613583391943e+01 9.586283543183624190e+00 2.151457772650489098e-01
-8.596728227703076186e+01 1.042600884233608660e+01 4.224658102539528670e+00
-8.556980928577962686e+01 9.315730714396137202e+00 1.161712304444528110e+00
-8.609953838389326108e+01 9.620588082761779347e+00 2.426136622584396385e-01
-8.546028618855851278e+01 1.029093825862399392e+01 2.177007129233956839e-01
-8.613927194050208414e+01 1.069418632322910234e+01 2.306817684826953652e-01
-8.559138993542637763e+01 9.861496951599256988e+00 3.071857275724478864e-01
-8.560834238849416522e+01 1.008210085829283109e+01 1.836942872621891987e-01
-8.667840867906393498e+01 1.019121101357285575e+01 1.745506956932733611e-01
-8.652597832688985591e+01 1.028484050131102379e+01 2.551265743225429317e-01
-8.522187641553797732e+01 8.852004742516347946e+00 1.734459582706731895e-01
-8.513794799810730751e+01 9.000133773654733105e+00 1.959007074256430003e-01
-8.533374322633717668e+01 1.017260397129419580e+01 2.423277906689693117e-01
-8.515455733375608816e+01 1.020122149188870075e+01 2.481363865031507299e-01
-8.499090711154912015e+01 1.004031019433248773e+01 2.617487282540458815e-01
-8.605413408302683820e+01 9.729996493026664695e+00 2.596002926493757301e-01
-8.544207902827854184e+01 9.289065279529882702e+00 2.655037063722391344e-01
-8.465546318748570798e+01 9.767967491447970829e+00 2.634552660304142480e-01
-8.598169905527824142e+01 1.086235203110094183e+01 2.783737355332856489e-01
-8.620190839214448886e+01 1.067969392787708927e+01 2.581515805370556693e-01
-8.474399053342645516e+01 9.344914026399335327e+00 1.651010422866917501e-02
-8.470587763562323858e+01 9.519122612558239993e+00 2.388768223425866491e-02
-8.599351889300842799e+01 1.011972459201626151e+01 1.459755789942830673e-01
-8.641411729382457452e+01 1.046229384180798228e+01 9.208336366999511635e-02
-8.496540930929620572e+01 9.121538612842659433e+00 6.125844437962005978e-02
-8.545639809808918130e+01 9.189189250115209262e+00 5.099240111518453522e-02
-8.559369097583484631e+01 1.021551993849954343e+01 5.092295829688821274e-02
-8.644725765785028671e+01 1.000524714222019185e+01 5.233600713617639344e-02
-8.632416174580981760e+01 1.000002416135867023e+01 6.525638633910539610e-02
-8.595087167221231539e+01 9.648320153089990470e+00 4.676516839089651933e-02
-8.602669169331350929e+01 1.058187239953131709e+01 4.932579785624132546e-02
-8.572972707279525650e+01 1.044144691050340690e+01 7.530468245828954299e-02
-8.628581547235711469e+01 9.812126161318484918e+00 6.368269948528951230e-02
-8.586700875412633138e+01 9.987036281584106945e+00 7.727929731235644306e-02
-8.546891825991744440e+01 9.601587434042688329e+00 3.113327393178477176e-01
-8.542287769937955488e+01 9.751001119177891141e+00 4.980354305269768522e-02
-8.525926706567332758e+01 9.924608034658115585e+00 6.836683819314495758e-02
-8.532561650107795970e+01 9.819570216335764101e+00 4.286651615137323373e-02
-8.543753349154471266e+01 9.452922533253374837e+00 6.670680629184150279e-02
-8.520421803114234649e+01 9.588344375478030202e+00 4.335179376606258100e-02
-8.532943270657474955e+01 9.551823634395333329e+00 3.869200994954895279e-02
-8.608401838393174899e+01 1.080456861501608579e+01 1.401199156996351947e-01
-8.536978136237816273e+01 9.093484776815849102e+00 1.417928308437901019e-01
-8.561670267387935951e+01 1.036352401242618981e+01 4.623248622407873099e-02
-8.623945241072928525e+01 1.018046932718933384e+01 1.523648704626330008e-01
-8.526283350737651290e+01 9.272091697429358348e+00 8.773766293231363700e-02
-8.594081527161610268e+01 1.096992039852068146e+01 6.025040297898517222e-02
-8.543929185731569476e+01 1.042540576206353720e+01 4.863416615966351664e-01
-8.550196967619564248e+01 1.057191518277448417e+01 4.610854134562619167e-01
-8.491928543431262710e+01 9.911325684693661486e+00 1.129422804776708089e+00
-8.483102366034378861e+01 9.760035799945264046e+00 4.576370937818416418e-01
-8.485509001738283530e+01 9.634126640200360470e+00 4.266116834647494804e-01
-8.533649181386061855e+01 9.209274168349201872e+00 5.256117051413949914e-01
-8.562708670311708659e+01 9.614274903952590989e+00 4.058469038544627039e-01
-8.568688802932523174e+01 9.728866581880105002e+00 4.356172761802391130e-02
-8.573955853395014515e+01 9.305154370357570315e+00 5.131740854507348820e-02
-8.560519587961604770e+01 9.328940864261515031e+00 5.379315390047883366e-02
-8.607472205391255216e+01 9.848100398539244793e+00 4.376783333671949161e-02
-8.532201868001683920e+01 1.003809792501393261e+01 6.417705765224754333e-02
-8.530780096490427411e+01 9.428518433300592250e+00 1.060451251803951472e-01
-8.584119663357088825e+01 1.075294267349069166e+01 7.404763881615593346e-02
-8.603626546033798661e+01 1.038159189749817379e+01 8.091097177633924109e-02
-8.505673960591163052e+01 9.496691350388294595e+00 7.950389171522238840e-02
-8.581163020444991218e+01 9.521262236003044777e+00 2.391747412169783760e-01
-8.585638997911591730e+01 9.420268635563628479e+00 7.999799440794774785e-02
-8.569757162507163173e+01 9.519366752051283243e+00 8.043811328834725438e-02
-8.635971163878079437e+01 1.026002528265627944e+01 7.587764600653058855e-02
-8.517315288731479939e+01 9.161812991697122044e+00 6.382625381455009350e-02
-8.663916654650077476e+01 1.028119862005742569e+01 7.747326529574394272e-02
-8.513431705265524840e+01 8.889173835419621028e+00 5.594930730114513473e-01
-8.650639389822678993e+01 1.040756347445654484e+01 5.024146764943826504e-01
-8.501514147296813917e+01 9.027387450172385641e+00 5.339170604995384650e-01
-8.579832936097886886e+01 9.730061834446409819e+00 4.966044964990177779e-01
-8.583690527086339728e+01 9.887718101571508100e+00 5.417828248788699730e-01
-8.608210198592027496e+01 9.956727947861535810e+00 4.869356125645175615e-01
-8.507262384456423376e+01 9.761230605283497397e+00 4.819523553510664526e-01
-8.646325473611409507e+01 1.018628150165715596e+01 4.547490297674143811e-01
-8.524134973939558790e+01 9.056954531053570179e+00 5.182572773649570808e-01
-8.457713623623266130e+01 9.512709947005916433e+00 5.805802337647647526e-01
-8.466873204757133919e+01 9.393404524890325291e+00 5.148391446440827579e-01
-8.495809517130851418e+01 9.528014843161564329e+00 4.994925757904624120e-01
-8.630492396614509687e+01 1.062712755222682048e+01 1.066393817753789053e+00
-8.480534517701748598e+01 9.239394579114309280e+00 4.288102333157551294e-01
-8.560424444085123241e+01 9.147527816200032191e+00 5.266685757870337437e-01
-8.557607561766883464e+01 9.239869804098450601e+00 2.677908751283697431e-01
-8.587511923470704289e+01 1.036617944269865887e+01 1.441672503290361562e-01
-8.638534888852959170e+01 1.058536685411356615e+01 1.620666324179932394e-01
-8.484274234915814361e+01 9.157779977333550647e+00 4.074109423710905453e-01
-8.541191048942143027e+01 8.994815920666555442e+00 1.385483794645909761e-01
-8.586303942194150807e+01 1.061610558790171233e+01 1.482071682666504797e-01
-8.609922565581226195e+01 1.016294699367465348e+01 1.753483669083600871e-01
-8.564066692246281320e+01 9.427031593020586797e+00 1.466801518158385720e-01
-8.630927355537168921e+01 1.040977623118369522e+01 2.573335906982521584e-02
-8.502483484402742420e+01 9.221044974654645898e+00 2.727750970426468663e-02
-8.587612511388675784e+01 1.011669244275482882e+01 1.534555988004671634e-01
-8.561377003503211824e+01 1.059928776155395092e+01 9.983130505366441532e-02
-8.552790252854029518e+01 9.408307478706262827e+00 7.158351508236826533e-02
-8.573380548361527076e+01 1.078828476011216608e+01 1.854124808396660218e-01
-8.551305415858378467e+01 1.001309259994011747e+01 3.006510288353985705e-01
-8.593513027137025517e+01 1.020977808942173581e+01 8.155782080520858346e-02
-8.592897901178054099e+01 1.031424496630878629e+01 7.326343519455534581e-02
-8.656892604856204798e+01 1.021296247547759428e+01 5.275176090711294341e-01
-8.521647618621018694e+01 8.946603346502094212e+00 9.436855178341521100e-01
-8.506067362267988585e+01 9.993448074241095824e+00 5.509994107939433228e-01
-8.623035308925985021e+01 1.059018365427972519e+01 5.360875477095716768e-01
-8.484571776017163813e+01 9.315578539700251071e+00 4.929846070100784572e-01
-8.585815406381374260e+01 9.607318169179203338e+00 4.782540455352750630e-01
-8.621779725579247611e+01 1.078294188858017222e+01 4.872782584681554785e-01
-8.638600958017489972e+01 1.036321781885246196e+01 5.223267505314400649e-01
-8.506724908902630489e+01 9.142687526245577345e+00 2.200119189577194323e-01
-8.579202345253057160e+01 9.371446032151407479e+00 7.998815122088363816e-02
-8.561175876934521511e+01 9.984133996687234003e+00 5.914186185325944617e-02
-8.562981246956920245e+01 9.913350864390421791e+00 1.171843522656490222e-01
-8.628498988246256829e+01 9.899271202308074891e+00 8.551312300893210150e-02
-8.569403373371973487e+01 1.055309034829015502e+01 2.611389651275283219e-01
-8.515673117725960140e+01 9.666673848405581637e+00 3.009537561237760062e-01
-8.627453344348583641e+01 1.008519755712470456e+01 9.457242139301602624e-02
-8.488476899752248528e+01 1.000622729528323873e+01 2.241934611351401041e-01
-8.515215703315107021e+01 9.933916202783578342e+00 6.941929528515289327e-02
-8.508376536334205298e+01 1.010840969287265523e+01 6.833171681671780517e-02
-8.569319552516415683e+01 1.015448672797212915e+01 8.022399686809587871e-02
-8.570598445600434445e+01 1.007857637030347675e+01 8.373208023617149942e-02
-8.616924070776664735e+01 9.801705526200612084e+00 2.030559861010635958e-01
-8.464485035917269329e+01 9.658010660586313634e+00 2.723973178889285696e-01
-8.550256301019948069e+01 9.799776697949710069e+00 7.308902168920639042e-02
-8.614887051979913224e+01 1.033813667551312676e+01 7.635116333412814149e-02
-8.510361277369244704e+01 9.371830929089677298e+00 7.092071162627586189e-02
-8.622192972567388836e+01 9.986374031333284051e+00 9.680343741816623826e-01
-8.658877008276736831e+01 1.035461387091047669e+01 7.645339526848465850e-02
-8.506364678149793690e+01 8.943043541614359881e+00 7.674948032345621507e-02
-8.525572079100811607e+01 1.025124407772350743e+01 1.272791175856956281e-01
-8.520891718070187437e+01 1.031844875424594044e+01 9.994439274630272096e-02
-8.550251779239489736e+01 1.021522775845209274e+01 7.651857333631499614e-02
-8.524247236926210292e+01 9.509294015993942750e+00 1.520711590585196171e-01
-8.599434446104183394e+01 9.794439905088214715e+00 5.095854612338974743e-01
-8.643919702447163900e+01 1.009521184817736916e+01 4.385561877613066151e-01
-8.584449684563607263e+01 1.019824280341005540e+01 5.084591577000938667e-01
-8.535472206879717305e+01 1.027586667881588234e+01 2.876989898396504763e-01
-8.520791239613942025e+01 1.014804812904005615e+01 3.496512863938595062e-01
-8.544003900827992481e+01 9.883062309723834815e+00 4.857090527747991437e-01
-8.618099472117756932e+01 1.049212909761751256e+01 5.275474029874772652e-01
-8.494751197772028206e+01 9.350968859797267996e+00 3.405009017405155602e-02
-8.475029016242750401e+01 9.843832385529452722e+00 2.520189084348119501e-01
-8.605438583049752310e+01 1.066024658481524412e+01 6.315828667225579229e-01
-8.457501451660364467e+01 9.702621289551149886e+00 3.245784705472611748e-02
-8.570083397948062043e+01 9.351085562924000172e+00 7.904166597414830076e-02
-8.577510730896069902e+01 1.053415780153492598e+01 4.221745248305916465e-02
-8.617619870772840329e+01 1.026040694615409521e+01 3.774587266418459597e-02
-8.518090786844214790e+01 9.346917765790600185e+00 4.726039169356131553e-01
-8.464448979873890266e+01 9.581494445969505946e+00 3.743098716455899033e-02
-8.588850979855591561e+01 9.704127882251645687e+00 7.735421135519969515e-02
-8.608304210108707366e+01 1.007711863927161566e+01 4.699739108495875478e-02
-8.482175792687709759e+01 9.381359559002099502e+00 1.830593216994646499e-01
-8.473485233643268089e+01 9.414422030934709085e+00 1.731400855316682641e-01
-8.538092770171563473e+01 9.686626637387634631e+00 1.386718210384353944e-01
-8.582378638765251821e+01 1.041918817218401472e+01 1.766281790837835597e-01
-8.552965304932742185e+01 1.038315057315593393e+01 1.492261572285473736e-01
-8.474719170118008549e+01 9.715479015511133909e+00 1.352415147282618468e-01
-8.594466441048835748e+01 9.968018807520437008e+00 1.541476155014523952e-01
-8.512093261440379877e+01 9.840359419103373639e+00 1.192553697442784444e-01
-8.541632244192078360e+01 1.020920219705206122e+01 1.440482999418341292e-01
-8.615302441838318259e+01 1.060007069881490160e+01 2.325990985138124134e-01
-8.497508938606186746e+01 9.728169754092785837e+00 1.199588023471255122e-01
-8.664758181138580539e+01 1.010033794950779296e+01 1.402429275722908431e-01
-8.532093168282322893e+01 8.865118380014989086e+00 1.681488272391905570e-01
-8.564313585292953235e+01 9.823927998203041412e+00 1.088304742348777526e-01
-8.607627594125163739e+01 1.088422074273237783e+01 1.271333879789433574e-01
-8.643407886366900073e+01 1.052553281428505549e+01 6.421795670870507344e-02
-8.490029165686375734e+01 9.106067563342863380e+00 6.423735308500912178e-02
-8.527622657157706954e+01 9.747801127335657512e+00 7.162259550752461679e-02
-8.548329179481244466e+01 9.534433946288062955e+00 7.582938244690055063e-01
-8.459989136486089478e+01 9.423826349762089549e+00 5.415576440877197667e-02
-8.514234924127008242e+01 9.527669030913392234e+00 6.837862619955221988e-02
-8.576992922762222804e+01 1.004113390594842947e+01 1.030075706633336308e-01
-8.595245643131146096e+01 1.060531573013360962e+01 5.921738904978327001e-02
-8.482923608247619995e+01 9.861451288386481551e+00 2.979105995242499472e-02
-8.553060474455952544e+01 9.127981909274177852e+00 2.589445947638266063e-02
-8.555472105817341344e+01 9.080976444297125028e+00 2.718759656070091416e-02
-8.593402357062271335e+01 1.077578771822478387e+01 5.415502915359083486e-02
-8.588670917085168810e+01 1.083386281713532462e+01 4.203588298918427973e-02
-8.623393005200935590e+01 1.038533317174481496e+01 2.264012761146377561e-01
-8.505411477469928627e+01 9.293432658059668228e+00 2.250971864774150566e-01
-8.526063415515019983e+01 9.590919346690323977e+00 2.502754409430424376e-01
-8.636684122935474761e+01 1.006856919184972199e+01 2.395451252109017104e-01
-8.554808654668902079e+01 9.580747619916364144e+00 2.302711711785923598e-01
-8.529812663395405536e+01 9.354656836384451779e+00 2.299886074696771698e-01
-8.537698587595841104e+01 1.011620663687649113e+01 4.987613226344410622e-01
-8.604527085389221952e+01 1.044999418196521646e+01 2.445182423039671815e-01
-8.527550512401832350e+01 1.010423272244470994e+01 2.359925010023018466e-01
-8.544590040896326855e+01 1.002698970998037353e+01 2.621795088057927159e-01
-8.522664175943904752e+01 9.670559217199800273e+00 2.169213296233003796e-01
-8.601123420923838125e+01 1.094644489709074087e+01 2.410977709930968160e-01
-8.555723836830716778e+01 1.012863787322301867e+01 9.739660757105441519e-03
-8.544839190197585310e+01 9.379705847845869471e+00 1.482443403390987582e-02
-8.603986361102217018e+01 9.663323047054619863e+00 8.489653143867509702e-03
-8.595539907310448768e+01 9.699825422842870637e+00 2.671595445476107264e-02
-8.547321202507120574e+01 9.706002473493253291e+00 3.376948902399729002e-02
-8.480405721772662275e+01 9.552581708743284494e+00 1.787616510778997081e-02
-8.603480958276445278e+01 1.020129825963811143e+01 1.314802574801999246e-01
-8.675829374275099326e+01 1.020822544292247969e+01 1.146788203059430772e-01
-8.665500827912342174e+01 1.024751331777948415e+01 7.502737101483167304e-02
-8.520443982238889191e+01 8.766460740234675697e+00 9.791493060776344792e-02
-8.516859260674624466e+01 8.869798220459566451e+00 6.564777883443886908e-02
-8.582167700668595955e+01 9.802131712637914163e+00 8.541881690694820561e-02
-8.592441568676716201e+01 1.005676805038288180e+01 2.975577687237518920e-01
-8.579990535129093132e+01 1.025267312791201668e+01 2.834991770825402990e-01
-8.550208032898810018e+01 9.240927567643028695e+00 3.295919277745608111e-01
-8.612254524678431267e+01 9.684350441780834373e+00 3.078122756877553212e-01
-8.616731442336231339e+01 9.645231433871591875e+00 8.054186079795570830e-02
-8.569363705916977381e+01 1.071375528701764601e+01 1.355375611994878160e-01
-8.655410202747511050e+01 1.000686716237069795e+01 8.937855590153999386e-02
-8.652776157728057171e+01 1.004752258678053778e+01 8.621867056914700456e-02
-8.623121791502973110e+01 9.851599937368867188e+00 7.842573044093503754e-02
-8.489220031773785990e+01 9.556291972416627090e+00 3.548183615758943699e+00
-8.639961110161695501e+01 9.966255552040257371e+00 7.595775976076124536e-02
-8.645667728915341854e+01 9.945762707816854231e+00 7.517910555227989844e-02
-8.523926570810236569e+01 9.993916865574185238e+00 8.215788084892304555e-02
-8.496345882342748723e+01 9.855285675337547957e+00 7.752513208835977443e-02
-8.449464549978260663e+01 9.520258061806828209e+00 1.943526016416293190e-01
-8.443857267249160259e+01 9.594618817340826666e+00 2.708950522688376508e-02
-8.631350264050031740e+01 1.020411492757572169e+01 6.787561965575393541e-02
-8.523340956260793178e+01 9.205834959487527058e+00 1.341777449749915474e-01
-8.555195871206973379e+01 1.029458372631209429e+01 2.018109176663953341e-01
-8.603339674221990663e+01 9.904040550290897471e+00 1.257105951773592467e-01
-8.498615155078776695e+01 9.464390950478557940e+00 1.149522481615375818e-01
-8.615296965426881570e+01 9.998159512671136895e+00 3.404177628214202223e-01
-8.649151269916158924e+01 1.048597892563937251e+01 1.335861593261391533e-01
-8.493680529394841017e+01 9.047120354735284309e+00 1.352727090990088477e-01
-8.480984787648499434e+01 9.675695411972091264e+00 3.346131297832085072e-01
-8.549909685984769681e+01 1.050770699552967180e+01 1.914150398168391054e-01
-8.541051276255426217e+01 1.049481734771254793e+01 1.780856187687165637e-01
-8.538661113458839225e+01 1.039943221079827040e+01 1.949878891943418457e-01
-8.587873001343193380e+01 1.069531817587583689e+01 1.516676484215166154e-01
-8.596861544949180711e+01 1.051321238038591943e+01 1.732116560465961630e-01
-8.564016202442935821e+01 1.042878357307037263e+01 2.152383297782665683e-01
-8.593090095880506851e+01 1.092168965003999759e+01 1.678854150453521765e-01
-8.538786490210880231e+01 9.158706473519934832e+00 1.597849988098380969e-01
-8.569694674676668456e+01 1.036848203624897025e+01 1.585616159892140331e-01
-8.524098516320277952e+01 9.397481886565389075e+00 1.441823855981614610e-01
-8.550160729094717738e+01 9.341616997298380909e+00 1.773156199417417478e-01
-8.567251077310909579e+01 9.288303042237979312e+00 5.282261255851050663e-02
-8.597242282851649975e+01 9.574395338658650445e+00 5.151938840909935091e-02
-8.599394405954272713e+01 9.505063766848522278e+00 5.369229457750814005e-02
-8.591953627643860614e+01 9.484509964497439327e+00 5.977424839601939294e-02
-8.568889956253930507e+01 9.657633988298966798e+00 5.117852588271230851e-02
-8.628990291668115731e+01 1.070480907399311832e+01 5.584596574810164749e-02
-8.473300726914030179e+01 9.265031474763413044e+00 4.996427145764270605e-02
-8.467340811233160025e+01 9.305667974989004776e+00 7.586125716587832635e-02
-8.646691499287885563e+01 1.002339902717465137e+01 1.419157020333086661e-01
-8.532621724798437413e+01 9.888667482903393591e+00 5.960163209160987963e-01
-8.533315410301517545e+01 9.975049201110177677e+00 8.354051546575047560e-02
-8.537195897842210002e+01 9.401500594816212697e+00 6.405338875771057761e-02
-8.525819706738771231e+01 9.835559643836994326e+00 7.270800176288548522e-02
-8.518512628060661029e+01 9.862209592258015078e+00 7.205261922529067331e-02
-8.608556188309114532e+01 1.033413754474552704e+01 4.692722452378560866e-02
-8.562855168949178619e+01 9.545300707850168820e+00 2.374747044296207921e-01
-8.544468008800657799e+01 9.118163702402464210e+00 1.444650642063073365e-01
-8.557423250047089880e+01 9.798862509303157609e+00 5.150801526012173392e-02
-8.534516302048615444e+01 9.628492937110481265e+00 1.504662016212233444e-01
-8.538382139850594399e+01 9.567114484968943344e+00 2.586196535618174100e-02
-8.616579434137244675e+01 1.014079695879701148e+01 3.076597410062880539e-02
-8.511184570323553089e+01 9.465363521554186477e+00 2.680585230211469938e-02
-8.531465867306312134e+01 9.046893297761554820e+00 2.862634983402519498e-02
-8.489606997870004079e+01 9.702002035394142965e+00 2.164896453918481622e+00
-8.625251487964031583e+01 1.044791069661385663e+01 1.209550787268441063e-01
-8.498230600910699195e+01 9.290177840856008729e+00 6.317332760732796704e-02
-8.500409319622876581e+01 9.925884377901075695e+00 6.357744964986682124e-02
-8.609755240738937232e+01 9.788932565460209290e+00 2.446381769388147331e-01
-8.617033963783181605e+01 1.082374120972590603e+01 3.759676511687711775e-01
-8.509925015831650796e+01 9.684065981694292446e+00 3.161144135114321574e-01
-8.502115166726454731e+01 9.804410557286336925e+00 1.831018483418622722e-01
-8.672474243080054634e+01 1.025749290430399263e+01 3.230621453843051660e-01
-8.515347343646335787e+01 8.803124633822090317e+00 2.023760876387349639e-01
-8.658771687296187736e+01 1.005976413180756879e+01 1.921945986141750939e-01
-8.660251262530547933e+01 1.012305734318982786e+01 1.858551358742054904e-01
-8.529563925497492960e+01 8.920275996578320488e+00 1.715656392891977411e-01
-8.535276789397593689e+01 8.923055015180107574e+00 1.872939636831899290e-01
-8.604212446910287326e+01 1.073301094428411595e+01 1.869752908287602988e-01
-8.564477254425480623e+01 1.029588519169112892e+01 3.976835763955471892e-01
-8.643031446048539124e+01 1.024273760719070658e+01 3.200661959841964443e-01
-8.518631919755264903e+01 9.091344202556530973e+00 3.011119223163988279e-01
-8.579683282318660531e+01 9.954336717114472322e+00 4.480755767956112190e-01
-8.625733962075393890e+01 9.745701460022882401e+00 2.275417307652328969e+00
-8.569293454266419019e+01 9.587625970178928370e+00 3.522274659145326892e-01
-8.635632439282129269e+01 9.834616310099464798e+00 3.073748236253814325e-01
-8.552319483321453220e+01 9.662456840149642900e+00 3.247477170852357542e-01
-8.632628313753401983e+01 1.032279317123282603e+01 4.461923754696986433e-02
-8.511173901601051739e+01 9.198710711466747014e+00 1.113388838536003983e-01
-8.532578128165856413e+01 9.286408963845802944e+00 5.158365346751486030e-02
-8.577116579536973973e+01 1.071365430366262927e+01 8.317125643460701601e-02
-8.575932471458574469e+01 9.555766095161240870e+00 5.119842618797372513e-02
-8.582203855834471540e+01 9.598857700877271526e+00 5.080037915372469237e-02
-8.583759527724245686e+01 9.502101827459735972e+00 4.932155228181466650e-02
-8.578069578390189065e+01 1.079130847890981215e+01 2.306488711204669056e-02
-8.540055859743901578e+01 9.218694860818843040e+00 2.330355464965644385e-02
-8.581713622892407045e+01 9.663437119058055913e+00 2.012649891681489792e-02
-8.536123523544713976e+01 9.483171186464774749e+00 2.093282309136955399e-01
-8.601126184401667274e+01 1.080441556076029919e+01 2.573409176847579749e-02
-8.574428884262040640e+01 9.773172579736009169e+00 4.963054401759789513e+00
-8.547257193552255217e+01 9.958431699831304940e+00 1.417462487398917781e-01
-8.645953286366955126e+01 1.036570566998296350e+01 1.316339793730130214e-01
-8.506027579920358050e+01 9.070661270463721948e+00 1.544471742193911090e-01
-8.586500274949639788e+01 1.091793492204080174e+01 1.349330855440236676e-01
-8.590410335139995368e+01 1.044279522905965152e+01 4.641897482886748527e+00
-8.636211917439884189e+01 1.051463892140334622e+01 3.285724058086150201e-01
-8.491563430023371950e+01 9.175976297907634915e+00 3.091255598702226104e-01
-8.601398418370352772e+01 9.969518773090070951e+00 3.522646057221801574e-01
-8.492217229034564241e+01 9.620110859150324600e+00 2.858424538468337106e-01
-8.589792765217973169e+01 9.914003511827644388e+00 3.207525579345029687e-01
-8.583491707662652459e+01 1.006684988357062593e+01 3.287984988015334453e-01
-8.549837406219873515e+01 9.477855622909110878e+00 2.954649115273916271e-01
-8.576133620947544500e+01 1.019559678627953225e+01 3.000884183963609675e-01
-8.611207773094128015e+01 9.899681064188397883e+00 1.137346406324789561e-01
-8.559007341790758971e+01 9.388181368427144236e+00 1.544506097178682813e-01
-8.449582728923007835e+01 9.657006969703360255e+00 2.025721559518210424e-01
-8.541165752467463790e+01 1.034246229387795779e+01 1.058372877813884144e-01
-8.562753629820541335e+01 9.689518937070644711e+00 1.920202167100455715e-01
-8.580432520430531440e+01 1.048009694523728541e+01 9.431594922771997791e-02
-8.574733031141477113e+01 9.690033319380166432e+00 1.050968493157697914e-01
-8.567632861055032834e+01 1.000904631253354182e+01 1.127525781858711856e-01
-8.569804433079436023e+01 9.906763325100870432e+00 1.012439682002983787e-01
-8.533945669936737488e+01 9.739469507636247414e+00 8.901211659822952371e-02
-8.642396144779769429e+01 1.006885231027458616e+01 2.748509600471452097e-01
-8.575793983072497895e+01 9.487647706665988778e+00 6.188444753943403778e-03
-8.543067289213031756e+01 9.049811419077775199e+00 7.834057014472995892e-03
-8.546351254797727393e+01 8.995812372407705482e+00 9.934649427315117576e-03
-8.503179203061871760e+01 9.689335964722960881e+00 2.570112392352377068e-02
-8.562853273108163421e+01 9.762371130954290877e+00 3.343556040024471265e-01
-8.556929352571697223e+01 1.054059426797906163e+01 4.421921062350094300e-01
-8.560798566116369557e+01 9.265326648714308888e+00 7.903902034082401773e-01
-8.589388279958036776e+01 9.854011288291072646e+00 3.612028206903895033e-01
-8.475840911601710559e+01 9.483215642181846761e+00 3.592616706112943259e-01
-8.490498131748758226e+01 9.481137209000138455e+00 3.806615761372088985e-02
-8.551997140620989057e+01 1.007762764338838046e+01 3.328691997674457226e-02
-8.514150620670498881e+01 9.599398549607245812e+00 5.399920793765959626e-02
-8.652431852831028891e+01 1.034935384905982048e+01 1.134720082666666602e-01
-8.507286927145477762e+01 9.005982683997492799e+00 3.678817812625746059e-02
-8.657566873914466044e+01 1.041572232491834171e+01 4.928316937076292203e-02
-8.500270918040773438e+01 8.959915094209309316e+00 2.235477412355738880e-01
-8.640805084161216598e+01 1.030305686624046579e+01 2.123175622965396969e-01
-8.512671541335984671e+01 9.117133675719401253e+00 3.335655206743692869e-01
-8.502707542449172706e+01 9.546317052350774546e+00 2.514535418922720922e-01
-8.498862424713394148e+01 9.592490497183554510e+00 2.302402169869509907e-01
-8.626019432929791719e+01 1.023655609923732612e+01 3.195556220429058847e-01
-8.520025968253401061e+01 9.267244834923822339e+00 2.457782512939900299e-01
-8.568048099901565706e+01 1.064826309819074446e+01 9.475730846733690371e-02
-8.593042477072458496e+01 1.014998503685840525e+01 8.037674925205272325e-02
-8.463479343177421299e+01 9.359493092132634473e+00 6.288874825893271681e-02
-8.581228542555122374e+01 9.451184410393773661e+00 1.726098486911837593e-01
-8.651537050974363297e+01 1.022267757276086719e+01 1.792125198069787206e+00
-8.520193794343356331e+01 9.001696242938708181e+00 1.319829118834676962e-01
-8.511001093485121771e+01 1.005270446967820241e+01 2.966129425229028782e-01
-8.550884673924834090e+01 1.044690532972587960e+01 3.060773512261598661e-01
-8.486160646000551822e+01 9.944104476851421737e+00 7.996107160111511070e-02
-8.665123036368245835e+01 1.034236647975348511e+01 9.690463542920569467e-03
-8.507223012942590401e+01 8.880909587905188474e+00 1.596720841117802922e-02
-8.638047734284448609e+01 1.020032346101237408e+01 2.260208953916499272e-02
-8.523292824330336259e+01 9.137139788191930734e+00 3.882728003316098797e-01
-8.554296284120628968e+01 9.184338274281222070e+00 1.075215379621302647e-02
-8.633690173520680844e+01 9.935565313465531290e+00 1.398632921606500316e-02
-8.613205841393244100e+01 1.075635546793510144e+01 4.553770296523926397e+00
-8.591503729751292440e+01 9.592109641261025388e+00 1.494942433556183982e-02
-8.608807740181121915e+01 1.060320010208015340e+01 1.144141804025783915e-01
-8.463835408287160078e+01 9.497528666457927926e+00 1.307074446352401997e-02
-8.508239237267780197e+01 9.936908269509334701e+00 1.072426701564228313e-01
-8.521046083826657025e+01 9.722093199080942938e+00 1.715042760153270840e-02
-8.488781916822412654e+01 9.838638467650259400e+00 5.794343452153744023e-02
-8.577098818907683153e+01 1.084166499777011339e+01 4.011768355135127972e-01
-8.614842200433204766e+01 1.020310713025121530e+01 3.572669149326451049e-02
-8.587845636339071120e+01 1.017806408554607245e+01 1.235960306712422518e-01
-8.628695906224778867e+01 1.014273486476623098e+01 4.043944685984163928e-02
-8.605888444326316744e+01 1.001943119233869339e+01 3.733756855820802995e-02
-8.529820862823471828e+01 9.498892651970583856e+00 5.100714974241382649e-02
-8.562906740823672180e+01 1.014948539988017195e+01 5.242413474905787546e-02
-8.492972481461279699e+01 9.987187977642932424e+00 1.422879514436266035e-01
-8.575698658159123511e+01 9.904842530790576305e+00 2.077497262061891448e-01
-8.528718476771432222e+01 9.096523380322393493e+00 2.738767787036969215e-02
-8.569887188095407282e+01 9.458517753705883990e+00 7.863037059956301533e-02
-8.558500583030357234e+01 9.448295501335694624e+00 5.222414324348206155e-02
-8.623567419679331181e+01 9.923339418147413937e+00 6.163091478007781676e-02
-8.617781425692867003e+01 1.054546706551453106e+01 1.220172408906711192e-01
-8.581669512085130691e+01 1.066111490757721647e+01 2.661290116424060437e-01
-8.552647406924887719e+01 9.035205925632300961e+00 9.152174516404464055e-02
-8.642071363949578711e+01 1.014365279120677954e+01 6.110782538472661618e-02
-8.658270422612828554e+01 1.026368461512082142e+01 4.911974413281872121e-02
-8.515586729159980450e+01 8.943036884091005945e+00 5.195773675097425243e-02
-8.613266094310291976e+01 1.086421858201631174e+01 5.048683564558607839e-02
-8.539462242340462694e+01 1.005907527940877166e+01 5.682847548749916239e-02
-8.581716907744738876e+01 1.031778303844539302e+01 2.772842895540590380e-01
-8.597240081405951173e+01 1.036646020894434450e+01 2.028278965956312740e-01
-8.513223796647892527e+01 9.743315178076617400e+00 2.301484343111104280e-01
-8.541208800137414414e+01 9.633915941503611080e+00 2.191389877452603885e-01
-8.630620119148112224e+01 1.057962647128714906e+01 3.021975013056529269e-01
-8.485329590137941125e+01 9.235063070477732339e+00 2.392070310752957285e-01
-8.477206771750111614e+01 9.786531332485354895e+00 2.260729041435168285e-01
-8.454561371526926905e+01 9.450736444778431888e+00 3.674892628885069179e-01
-8.622856919651187013e+01 1.004538001004607928e+01 2.089328358808097141e-01
-8.541619657825525280e+01 9.519380867994399864e+00 3.043710264959378908e-01
-8.488391874815968663e+01 9.363387582233194451e+00 4.197842028709813933e-01
-8.634741145502553650e+01 1.045345693102131612e+01 2.203923137919877318e-01
-8.497836948725381490e+01 9.186439177909196729e+00 1.473138577156319351e-01
-8.623206926054199073e+01 9.775455569599804662e+00 1.601665585666818825e-01
-8.612997814291776422e+01 9.839816279414172584e+00 1.616583494612148231e-01
-8.622693871080038264e+01 1.011316323112541404e+01 1.437062641609697933e-01
-8.544463942192834338e+01 9.817619288767879482e+00 1.151162809498201961e-01
-8.590253676176796205e+01 1.056564336529595494e+01 2.722372837995282180e-01
-8.468410770133901622e+01 9.460327150356105719e+00 1.222278028958997953e-01
-8.669496356550288851e+01 1.030013835282683488e+01 1.259788378132417064e-01
-8.511222176691985908e+01 8.835183431222731087e+00 1.383110251640206623e-01
-8.564440414976611748e+01 9.486519155307846063e+00 1.295562937710254547e-01
-8.536933681406162577e+01 9.026055470001804082e+00 1.141432984909614701e-01
-8.537982681187065737e+01 9.859045008466825522e+00 5.145997190417208461e-02
-8.595969174691927606e+01 1.026939858504625391e+01 3.264611387069588783e-02
-8.586401432157333602e+01 9.554173617766991811e+00 4.603390023922191571e-02
-8.512878205031974232e+01 9.994011936259566298e+00 3.504392084738208735e-02
-8.565086018247890820e+01 9.371700161637757986e+00 5.303859538192577661e-02
-8.585607124513931865e+01 9.752373886180087936e+00 7.865921061921045399e-02
-8.557871905487753850e+01 9.651866811594132400e+00 4.151064838784071509e-02
-8.567287966742057392e+01 1.020508195591552436e+01 4.227028175027058160e-02
-8.594983994050259923e+01 9.756312871491754635e+00 3.979589800670779720e-02
-8.517222409368916658e+01 9.498116119378032352e+00 1.150195240269041158e-01
-8.500196355049692443e+01 1.011992447054478994e+01 2.847901298222101918e-01
-8.501213337584755436e+01 1.007382250417963654e+01 1.880079797903532746e-01
-8.551605126449327088e+01 9.754000804125197988e+00 1.469995939383930972e-01
-8.571919953263829939e+01 9.232654632865994415e+00 1.742701370650306392e-01
-8.648451914908970650e+01 1.013067198021500381e+01 1.290552935567575443e-01
-8.601139562882195833e+01 9.847286806154611938e+00 1.519251639865285275e-01
-8.576218408390424486e+01 1.038718431701029843e+01 8.128601575246120481e-01
-8.524121901326856232e+01 9.337734398966107463e+00 1.302834949576483770e-01
-8.580266875656788272e+01 9.864730303725835370e+00 7.658500854760375010e-02
-8.526423697695497594e+01 9.004925448517317577e+00 8.151941407387520988e-02
-8.652546666897217165e+01 1.016794602280925197e+01 8.856457627068214933e-02
-8.549623205630584266e+01 9.872798044282877328e+00 2.838674611990596106e-02
-8.554827408889892126e+01 9.857741461121719340e+00 2.636260136349694722e-02
-8.514926160956041201e+01 1.011830664474106456e+01 5.166390554202364704e-01
-8.644398718856915309e+01 9.892337616365065145e+00 6.963546403787984618e-01
-8.641795961947116211e+01 9.896844330987043747e+00 6.994192842016869194e-02
-8.481419734781893283e+01 9.958281202217090566e+00 3.268681038277758688e-01
-8.592210973890190928e+01 1.064939778375207702e+01 1.156933013615130679e-01
-8.526583929474799106e+01 1.019664468998795215e+01 6.475382421598223359e-02
-8.561207412715536691e+01 9.183456057585475563e+00 3.040447661217777764e-01
-8.569462454885345437e+01 1.049493875526079023e+01 5.102069218457975369e-02
-8.605991742833694502e+01 1.051739571451184219e+01 1.243876202135838285e-02
-8.614287909112839259e+01 9.734007996564038478e+00 1.393109046394587144e-02
-8.600673249508118090e+01 1.101114335274808376e+01 1.368444086077057371e-02
-8.507246476884866127e+01 1.019598000677015293e+01 2.324243258491726777e-02
-8.510420376536896470e+01 1.017708247777405006e+01 9.651595628041122199e-02
-8.645429631935864734e+01 1.042331087098962783e+01 5.837456738156020508e-01
-8.500237970071323446e+01 9.079558912514658076e+00 7.930732912991959038e-01
-8.619176467186514401e+01 1.032118688762536785e+01 6.521208035996043373e-01
-8.512280967947047827e+01 9.329442464367366128e+00 6.928793033114878375e-01
-8.467724231194084439e+01 9.639321256708198504e+00 8.193115913068069744e-01
-8.654409809647469842e+01 1.046442269017314253e+01 5.552846866456180308e-01
-8.495541520251707368e+01 8.994097583369299542e+00 5.931386393481794528e-01
-8.636105981791071429e+01 1.064914482672005747e+01 7.646262348177886858e-01
-8.477972564029846581e+01 9.185755984864284684e+00 5.692806569582028464e-01
-8.605555365346070573e+01 1.013011801229960085e+01 6.159645789051878539e-01
-8.594707531966838587e+01 9.823117854999447118e+00 6.951484993526384493e-01
-8.533853001005977035e+01 9.126802140754602277e+00 6.401130358628973616e-01
-8.623718256031436624e+01 1.054363440361456128e+01 1.356674306804509234e-01
-8.489849944251142233e+01 9.302889718834583377e+00 1.256819462569593038e-01
-8.538338441086902719e+01 9.275453582412499287e+00 1.604151464698160279e-01
-8.626668639344840983e+01 1.074123790688395630e+01 2.485903788896367816e-01
-8.562683219346789087e+01 1.052097190766534851e+01 1.266111357570670615e-01
-8.627030772805066761e+01 1.036404083633401640e+01 5.518482401432808770e-02
-8.507343771640942975e+01 9.256341969782743817e+00 2.591971853631346079e+00
-8.605069863460782642e+01 9.794612281454044833e+00 8.128605929773802252e-02
-8.628494099660348127e+01 9.951814668168275091e+00 3.427249440835973548e-02
-8.613803256476825254e+01 1.048858827022034923e+01 4.473300158450908837e-02
-8.495760026616993343e+01 9.396356791632278771e+00 2.897721076962647691e-01
-8.498702464898296682e+01 9.995037423576214053e+00 2.829195632991284626e+00
-8.492658077151853036e+01 1.004695365762183279e+01 5.814380064904255130e-02
-8.625279942112679521e+01 1.064288927547710983e+01 1.435019416151450122e-01
-8.478930386462121760e+01 9.293849067655127527e+00 1.398327378545208832e-01
-8.569893661716486122e+01 9.403717254186258145e+00 1.240472224328306033e-01
-8.479199025664249234e+01 9.612347241102495943e+00 1.306287748565737039e-01
-8.479895150831902129e+01 9.433822087859928374e+00 1.378032362807991018e-01
-8.589767664374384992e+01 9.647761462506656116e+00 1.991905009672183813e-01
-8.585289990673469163e+01 9.352328294550042997e+00 1.408965555667745506e-01
-8.582421475474062333e+01 9.371294427983592357e+00 8.726460940878101313e-01
-8.580774672567511629e+01 9.317497011074191704e+00 4.874139293895074498e-02
-8.580601840320758811e+01 9.423313711301144480e+00 3.683651580362810041e-01
-8.584153397212405423e+01 1.054394029014094869e+01 3.333746010590661613e-02
-8.546245368399561926e+01 1.038250986325255276e+01 4.189084509099059994e-02
-8.600646471349620015e+01 1.032822249535283987e+01 5.015418317363704581e-01
-8.605840468860445469e+01 1.032310741357088624e+01 1.749325641364143091e-01
-8.599981311919934512e+01 9.734711677733464796e+00 3.536382910427742665e+00
-8.545192336772200292e+01 1.016830137272387979e+01 1.534804510620691453e-01
-8.526668024972927640e+01 8.947055375046474524e+00 1.538147706024770300e-01
-8.522454425531867628e+01 8.908363402189323210e+00 1.917651854731728112e-01
-8.558056000655609807e+01 1.002671485532511042e+01 1.721719367723444083e-01
-8.536520992402751062e+01 8.969721554912206685e+00 4.893819416503772390e-01
-8.540663309758599553e+01 8.941270438374647966e+00 1.730370529502786858e-01
-8.505458703986076330e+01 9.440826359899885389e+00 1.896909249730912295e-01
-8.642760080610990769e+01 1.059101648318135602e+01 1.648570600745492554e-01
-8.640413518016455896e+01 1.002227262353909509e+01 7.019853279266559387e-02
-8.483449728168410786e+01 9.116693175380026659e+00 1.186698143590715626e-01
-8.633931340660575415e+01 9.871598035142394423e+00 3.359345286919967477e-01
-8.568787051995286674e+01 9.789569807411842461e+00 7.754770610120623187e-02
-8.528476167949764886e+01 9.237075059607146699e+00 1.005771001908021267e-01
-8.600126021829829881e+01 9.617100404035459960e+00 7.062600895476721374e-02
-8.559349928559042553e+01 1.040704909976464521e+01 6.956450329855984327e-02
-8.639840365218240947e+01 1.009223635160696197e+01 6.981030682476709048e-02
-8.653001523431223063e+01 9.967309642390180358e+00 7.352297053105955049e-02
-8.653862529100801737e+01 1.002195241679525672e+01 7.533156719754481589e-02
-8.649307466801755595e+01 1.005162060448458661e+01 7.751047160666107994e-02
-8.614032558458919198e+01 9.943154087719005219e+00 7.755152810204084257e-02
-8.457429703892921680e+01 9.572236878763328960e+00 4.135484007336620582e-02
-8.662137990255885711e+01 1.017691142875643173e+01 5.275233943165488076e-02
-8.630459369130602454e+01 1.026948502837404931e+01 3.927576353055058783e-02
-8.516695090920188704e+01 9.216560001486268305e+00 1.332576099092333433e+00
-8.613604056776702578e+01 1.010690736452651528e+01 2.626521388332750950e-01
-8.632321251659081440e+01 1.010067344738994244e+01 1.168027483732276689e-01
-8.541655922643005283e+01 1.027220469180596574e+01 1.236962773195149357e+00
-8.485909630617298660e+01 9.439826618060100927e+00 3.665103906007365075e-02
-8.662976136138057370e+01 1.022725010778296451e+01 1.186697422555198916e-01
-8.525233484315151600e+01 9.456936300247495097e+00 2.237964300310254229e-01
-8.567187780435578759e+01 9.963257414323756223e+00 2.383948242549938437e-02
-8.665702877537439974e+01 1.014566694188043172e+01 5.074299028279393581e-02
-8.671851019026762231e+01 1.015074371850592527e+01 8.021773512122559735e-02
-8.511300709952362809e+01 9.886492215119607962e+00 6.977342602867023236e-02
-8.564090291039397584e+01 9.167411374773983823e+00 6.774607821843273148e-02
-8.609052561065450959e+01 1.038703513155884650e+01 5.527289933191617544e-02
-8.547192828175082013e+01 9.430392098532591305e+00 7.167958322915550518e-02
-8.648966854332910259e+01 9.953609971413094115e+00 1.413816964364541240e-01
-8.597374994536109227e+01 9.921702305343302442e+00 1.844765094414432260e-01
-8.508783073737269831e+01 9.551315161745392857e+00 3.010198799246838752e-01
-8.520095930555808650e+01 1.020574158458720149e+01 3.931692553102395404e+00
-8.519845866827473913e+01 1.026133729323383648e+01 3.139177974668402871e-01
-8.513279566126148268e+01 1.025457965658763904e+01 3.069634739019947989e-01
-8.524771999274236123e+01 1.031318042972166715e+01 3.190646445568302569e-01
-8.525488582762039869e+01 1.036104845447439438e+01 4.106531833217197391e-02
-8.533123130031391668e+01 1.041919681482847437e+01 4.688357056690161534e-02
-8.496079228914891246e+01 9.774639411441324199e+00 3.953730053314683662e-02
-8.566652331142222465e+01 1.009784377012517176e+01 2.596152508047347984e-01
-8.580123998293596799e+01 1.001115686671874982e+01 1.718423666790726889e+00
-8.519383277575404634e+01 9.988617631596369506e+00 1.034438884284000215e-01
-8.594663822931936181e+01 1.002325538293094809e+01 5.025204228696452530e-02
-8.600493572968471767e+01 9.669791443641173601e+00 7.530169981683776381e-02
-8.547520119965372487e+01 1.024686244810496127e+01 1.409242865627965691e-01
-8.552750663741480253e+01 9.284981421665806423e+00 6.760480827423584471e-02
-8.504942267415557922e+01 1.005149661604886013e+01 6.277637615852421638e-02
-8.598845365105610483e+01 1.065890741925895391e+01 8.462157025821208378e-02
-8.470914235657973279e+01 9.355653112628164791e+00 1.383325362038807793e-01
-8.545586008556021795e+01 9.232032685340769262e+00 7.910779881824193949e-02
-8.468139675875229955e+01 9.573380108176451131e+00 4.826473601359800025e-02
-8.468412749467459832e+01 9.740757187210933310e+00 9.453300290742702727e-02
-8.529573738905324376e+01 8.837747234443082078e+00 1.193868299417646939e-01
-8.612634832686723030e+01 1.004759033444178229e+01 1.032351395390754961e-01
-8.548611731251034485e+01 9.135449838265488509e+00 1.136069699385015702e-01
-8.551180865390328734e+01 1.015788237512897041e+01 1.118455278901241273e-01
-8.596282566465706054e+01 1.008777501096994378e+01 9.450851876544856534e-02
-8.573916620902218710e+01 1.058592128237027552e+01 9.533569967395955080e-02
-8.592011753957316955e+01 1.037917424877373662e+01 1.507214584344420405e-01
