-8.548973469815010162e+01 9.900130858400078893e+00 1.749283148219862749e+00
-8.590249575414367200e+01 1.016171384277923018e+01 1.106416714157575781e-01
-8.631737799040870129e+01 1.014711282867929221e+01 3.563408529018166626e-02
-8.593214637653031218e+01 9.975836796128673356e+00 4.472834238241770177e-01
-8.502670603658312132e+01 9.580199054615272658e+00 1.281145509961801598e-01
-8.602773944478671808e+01 1.030970269105267079e+01 1.272189352117381600e-01
-8.534377776424180695e+01 9.146583271008147165e+00 1.992826574722130623e-02
-8.532143245749492166e+01 1.012192872130960453e+01 4.525784074418524039e-01
-8.593373118333315119e+01 1.048542035896065627e+01 1.383068830994149123e-01
-8.537573372357408630e+01 9.611660328966642908e+00 3.854806118801148984e-01
-8.539329886370880729e+01 9.513791938617343291e+00 3.095034970228596749e-01
-8.522612390038820251e+01 1.028268811723230414e+01 1.412754267746209047e-01
-8.572507296719133763e+01 9.746296366610792461e+00 4.211295681581984640e-01
-8.523465324894652895e+01 8.931137388248020059e+00 2.026141750397247344e-03
-8.616722854462500436e+01 9.819767506571015048e+00 8.274659046520541072e-02
-8.495494738771760979e+01 9.986117445178452456e+00 5.218001051858486145e-02
-8.524685048261473241e+01 1.017820349924560475e+01 2.807190515667412622e-01
-8.496753363219517041e+01 9.912667337217275332e+00 5.542171404974514937e-02
-8.556004488319123880e+01 9.673311607449976535e+00 4.539285054892115978e-01
-8.642584850079073533e+01 1.011844330860379948e+01 1.022182326081907087e-02
-8.600113400485474813e+01 9.894929843577781270e+00 3.967921518211500187e-01
-8.526842602739145605e+01 1.029994962916778434e+01 1.636724809459738361e-01
-8.649131107821564513e+01 1.031003395303336845e+01 5.183123256805707325e-03
-8.507838406904672013e+01 8.910997329568399294e+00 2.580067099061516059e-03
-8.579799664625279831e+01 9.740603003595621701e+00 4.495804249090861737e-01
-8.538069713824560836e+01 9.593102876022573611e+00 3.804598839809327226e-01
-8.559807384494087046e+01 1.026906801289672622e+01 2.870331001904957158e-01
-8.592885991434378923e+01 1.022428833535333581e+01 9.804824695169868376e-02
-8.538921192261780391e+01 9.830957045852420251e+00 6.497842382788784343e-01
-8.669087283380093822e+01 1.016874825384935299e+01 2.684890669301044815e-04
-8.569114860748733520e+01 1.046231647489318028e+01 1.679665338395446850e-01
-8.453501550814887366e+01 9.553907276539126414e+00 3.377443179109110988e-02
-8.511184675020582802e+01 9.055286391304521842e+00 1.073642579935708830e-02
-8.512803021198581632e+01 1.020832711556006522e+01 1.212835908435505594e-01
-8.630425692105895052e+01 1.045311130374320818e+01 2.103910900628845962e-02
-8.609444198676267490e+01 1.099868663902705102e+01 2.148953019448030660e-02
-8.554377237122926658e+01 9.301040908412073094e+00 4.858828637809931711e-02
-8.558166544887630778e+01 9.191056803747844839e+00 1.117870571583852619e-02
-8.517626232866828673e+01 9.892674868692431289e+00 3.486060961560239480e-01
-8.496566320891852797e+01 9.097443523353453187e+00 1.400290270119729924e-02
-8.538490833054234486e+01 9.049409167058620085e+00 5.276583914924833432e-03
-8.534276882750889115e+01 1.017389851661606492e+01 4.604187198609562270e-01
-8.617243011202263858e+01 9.774165928434557671e+00 5.733867270469147903e-02
-8.622827391685287068e+01 9.838813564566608605e+00 4.677393276317075993e-02
-8.607986364128139201e+01 9.635547081604711295e+00 4.588490276084505187e-02
-8.571227401607282559e+01 9.703486171111038061e+00 4.475343435418860927e-01
-8.593492812389132496e+01 1.099661599348862673e+01 2.078921773494378164e-02
-8.613769811130498510e+01 1.054252776504887912e+01 5.048063390965790154e-02
-8.485219875560262892e+01 9.804868168389866412e+00 1.263961565627805435e-02
-8.534356122669366584e+01 1.000050379881903950e+01 9.742466660757082009e-01
-8.448905992274157484e+01 9.508676695012425739e+00 3.776889404838396080e-02
-8.607731154368097748e+01 1.021707423824181937e+01 1.685842302468417708e-01
-8.482998144738832025e+01 9.320830405751825865e+00 1.811265657869457271e-02
-8.653580944203277170e+01 1.027449902068501153e+01 3.117067695824176331e-03
-8.562704886346345745e+01 9.340736924505639749e+00 5.152466872077254845e-02
-8.611477408433393066e+01 1.069639280039517537e+01 5.256584857853205395e-02
-8.471724163189351486e+01 9.827981538263944827e+00 3.909945848680078384e-02
-8.625398173182908579e+01 9.910069189424943303e+00 5.006680658032324621e-02
-8.574791453191987500e+01 9.975408022782559669e+00 5.705603756021764283e-01
-8.477243771678428175e+01 9.693922237784757812e+00 3.307016064221360990e-02
-8.557968043530564728e+01 1.031379055236285680e+01 9.270519954303201027e-02
-8.563576551941123682e+01 1.017686277147334550e+01 1.495835017243263509e+00
-8.540020445868782417e+01 1.026429324753093297e+01 4.189946143203093221e-01
-8.572146372822156479e+01 9.410817406277875108e+00 7.094115480467007295e-02
-8.586680287555138591e+01 1.085604346220344141e+01 1.554581553995595944e-02
-8.650442246933418744e+01 1.049257471053530111e+01 6.090097829790570502e-03
-8.561701128627053947e+01 9.884592099071172200e+00 3.057448523327691015e-01
-8.458787607979095924e+01 9.504644709736021824e+00 2.079716425938316071e-02
-8.515867311803044970e+01 1.026548305714571185e+01 1.083746128155259475e-01
-8.495015764210830866e+01 9.703634830756270091e+00 6.296246062930327403e-02
-8.629823310521408075e+01 9.902415072807478680e+00 2.796256185175124281e-02
-8.572092825558529228e+01 1.074658761921043215e+01 2.781627664544277651e-02
-8.566780368435836124e+01 1.054518465021217821e+01 7.550409046470982211e-02
-8.614677105710602234e+01 1.043824155690814948e+01 4.736094477951271337e-02
-8.538051603560644764e+01 9.972023421725447534e+00 1.410485823662020577e+00
-8.570593042129995354e+01 9.344989808451460434e+00 3.618587814670106567e-02
-8.556356345866211655e+01 1.009261256650498950e+01 2.069533413591646109e+00
-8.524596081183419471e+01 9.550480362128276113e+00 3.265465667153858997e-01
-8.603899061463225451e+01 1.071474339096288730e+01 6.201852766127390060e-02
-8.599345099314209051e+01 1.105303967531429521e+01 2.337683648580632031e-02
-8.519203103274965372e+01 1.025808646958523340e+01 1.360101146898806401e-01
-8.545738194690167688e+01 9.528877909610949715e+00 3.252731558420013935e-01
-8.595308640733142624e+01 1.092285966522556606e+01 2.084427033419630065e-02
-8.503829407270322349e+01 9.246499745015254845e+00 4.914067253595651164e-02
-8.532264291618511720e+01 1.018661157144735796e+01 4.176665063678695611e-01
-8.578152426358467153e+01 9.578448502150045840e+00 2.466365387363638473e-01
-8.476653109774142081e+01 9.833381076521678921e+00 2.750060214385234916e-02
-8.590048449691563803e+01 1.034791921044288543e+01 7.775926523628118314e-02
-8.538441648875929957e+01 9.655697912681553419e+00 4.033276454547213286e-01
-8.459846418566806392e+01 9.382756783927179711e+00 8.189077327804984013e-03
-8.596621612521013844e+01 9.645336473492893248e+00 1.459805790889846244e-01
-8.515943484315734224e+01 1.017354965348462592e+01 1.635482111994396304e-01
-8.473473970647013687e+01 9.416751470754240572e+00 5.300482383733766574e-03
-8.529691214586053150e+01 1.028848961552786001e+01 2.197014317078045675e-01
-8.479756448371190913e+01 9.196458255081811473e+00 1.348538304636213471e-02
-8.581576661299804698e+01 9.618566649733423901e+00 2.819411372207930588e-01
-8.558915264127750788e+01 9.803100794026835985e+00 1.778548831095611849e-01
-8.594342999265849414e+01 9.423449031427038491e+00 9.931632797994010414e-03
-8.464256951221584302e+01 9.295892427405398450e+00 6.404448623901722037e-03
-8.532064205912976718e+01 1.031028723670670466e+01 2.132163931413238456e-01
-8.622628068198585538e+01 9.701929417246381249e+00 9.016596682219255032e-03
-8.622440607711203597e+01 9.713442598389594451e+00 1.253455219035838446e-02
-8.658042497197936882e+01 1.013768118886482306e+01 1.318007576360835740e-03
-8.566558920794791732e+01 1.031920637543771413e+01 3.348425541396979344e-01
-8.507459082282480267e+01 9.433023158785177387e+00 1.535851683489636577e-01
-8.530488422788015157e+01 9.816798002412339130e+00 5.712193425806080249e-01
-8.588064366281076900e+01 1.044208880571259535e+01 1.622266869379872800e-01
-8.530720133301781516e+01 9.749173517463656680e+00 3.221557150088609767e-01
-8.537423659085018812e+01 9.404433666779196344e+00 1.757297425904835730e-01
-8.514719016814456154e+01 9.519037902439492882e+00 2.570455997216856692e-01
-8.514145292682512434e+01 9.134205246035600467e+00 2.308391833314923230e-02
-8.506196449628070866e+01 9.619281113606072964e+00 1.634265504272179037e-01
-8.617090556489355890e+01 1.021927468616262580e+01 1.055611689144217297e-01
-8.517433648409125624e+01 8.805410842875470934e+00 4.124470183244578671e-04
-8.595326385938717806e+01 1.097920203339114309e+01 2.156690220988941031e-02
-8.624772540749506788e+01 1.007437748744233019e+01 7.412144616192144209e-02
-8.539508335597852806e+01 9.227437525954407249e+00 3.939614423197271287e-02
-8.472823710160385247e+01 9.471035383666704277e+00 1.419691268039336915e-02
-8.558147298189729213e+01 9.883414253837267793e+00 7.332898663033374786e-01
-8.578748246907802866e+01 9.590794574455156152e+00 2.618119773677070050e-01
-8.525285071645366486e+01 8.993908186596479837e+00 4.317993368593223656e-03
-8.449993681647745802e+01 9.435775917001313573e+00 2.768859759297436635e-02
-8.631339070764003907e+01 1.060581710036797354e+01 2.160483300789869249e-02
-8.486120114716781870e+01 9.298744599606520111e+00 2.428950853428979428e-02
-8.554931232049612788e+01 9.885209661338983267e+00 1.165234276445044070e+00
-8.642214523720755892e+01 1.062357041593343965e+01 1.366047342701873918e-02
-8.561144572135825115e+01 1.033561022312303557e+01 1.151911460438811291e-01
-8.554379795437006351e+01 9.477873933975009990e+00 2.225368904456054842e-01
-8.517026815469513679e+01 9.521128557758006039e+00 2.741186600814047303e-01
-8.553404003452115489e+01 9.509159850865019692e+00 2.800369437392735139e-01
-8.573927763576207894e+01 1.011948490739948348e+01 8.257116999078116804e-01
-8.549448903977817338e+01 9.702363250852316767e+00 4.192711861386479999e-01
-8.485258628013608018e+01 9.592012656796264025e+00 2.331336992271532474e-02
-8.552485703574578224e+01 9.157917838023253765e+00 1.042373169630361925e-02
-8.464020612804129939e+01 9.387379859219521450e+00 4.132170218617822743e-03
-8.478225403367200386e+01 9.311076384151260044e+00 1.092954873046345955e-02
-8.561705618715747335e+01 9.940144644750464664e+00 7.265471324723085100e-01
-8.562970108138163994e+01 9.721835098455642310e+00 4.019894007523927004e-01
-8.631932244110009833e+01 1.033155001160733200e+01 2.437454386876129406e-02
-8.480640268326702369e+01 9.522421673624936744e+00 1.901894537767628499e-02
-8.477100966741137711e+01 9.296880611869358546e+00 1.031268216828989080e-02
-8.515084227863158617e+01 8.814332836224641810e+00 5.758186213242902710e-04
-8.509427473707397382e+01 1.007597106353156136e+01 1.262644781879057043e-01
-8.480646381641878406e+01 9.542127185364533304e+00 2.269722087326926999e-02
-8.529944810678904332e+01 9.561057366632736532e+00 3.387378054311397380e-01
-8.446685095059201842e+01 9.443542362867530571e+00 3.489034543700731544e-02
-8.616647358615868768e+01 9.843368041513288702e+00 9.580659396104924952e-02
-8.592471334040133968e+01 1.069531213102137812e+01 7.334205937034510292e-02
-8.500874525949554084e+01 9.084359229454937790e+00 1.334578517607647868e-02
-8.497632626934961309e+01 9.583059717601177141e+00 7.553879591660241088e-02
-8.643503762215843267e+01 1.022736326227442838e+01 9.515570151079415576e-03
-8.473655704471424599e+01 9.261627359875987509e+00 9.419340539088112696e-03
-8.575627122504282340e+01 1.060292736350356257e+01 7.944101050824974031e-02
-8.554816260899383451e+01 9.678249322677087818e+00 4.508405771387954952e-01
-8.508508812663616538e+01 8.868812147635711796e+00 1.568435112078701106e-03
-8.618887167389223691e+01 1.028144080820304396e+01 7.554524924379751871e-02
-8.561739480543269565e+01 1.040063841276073475e+01 1.875150592265282801e-01
-8.476481044928635811e+01 9.183605040134400710e+00 1.211135400121775112e-02
-8.547220777619632770e+01 9.413104517306909003e+00 1.559574179922703363e-01
-8.592067567666538253e+01 1.041263323181835077e+01 1.189328592555091296e-01
-8.528787279784441466e+01 1.034599855544035485e+01 1.184671036016633344e-01
-8.622203819880468245e+01 1.003107175395413186e+01 9.395351387179406988e-02
-8.557766156650458811e+01 9.158947108378942659e+00 7.014545106675026086e-03
-8.574408215783596177e+01 1.042024686795342348e+01 1.924839137890705099e-01
-8.621968409672098232e+01 1.084133233443479583e+01 2.675989914470196587e-02
-8.539776952002664245e+01 9.208741493797488076e+00 3.252808979564390801e-02
-8.556283245681862581e+01 1.031607089241169106e+01 1.633443422970248526e-01
-8.558841135323024218e+01 9.379403462379576339e+00 8.888538708471094285e-02
-8.632548680446711842e+01 1.032064130227758803e+01 2.386475473828689881e-02
-8.473070353377508468e+01 9.203358049796843687e+00 1.095528726764484484e-02
-8.520302527533422676e+01 9.933280624092343913e+00 3.754271060001817539e-01
-8.476419762219218512e+01 9.848577442347982824e+00 2.820585471842045749e-02
-8.574935854426699677e+01 1.062392742177247307e+01 5.857422093704690164e-02
-8.548001603817975536e+01 1.025616361200936844e+01 3.849403437464329336e-01
-8.517501341598038778e+01 8.825929781554268772e+00 5.687608370515078284e-04
-8.614401020031044709e+01 1.001086563100842142e+01 1.877732967251561913e-01
-8.583028201868452811e+01 9.846100487609799501e+00 3.529347803932237904e-01
-8.507010257162787070e+01 9.503136906891933577e+00 1.789339081253168706e-01
-8.557000376479831516e+01 9.936862403818892631e+00 1.605468395986761498e+00
-8.670926611405091933e+01 1.013742336749702844e+01 9.901943024424678661e-05
-8.599225619220302974e+01 9.829965015011220331e+00 3.423955390755367145e-01
-8.585291830321354212e+01 1.038635578114357827e+01 1.636654511984885763e-01
-8.440828772233030008e+01 9.578577299130998313e+00 5.764221928537881928e-02
-8.440104282130167235e+01 9.581297805781773036e+00 5.618889951438661018e-02
-8.572871657567536374e+01 9.522604192224447317e+00 1.958114268954274928e-01
-8.653531982337483441e+01 1.004698825796694628e+01 1.613182347309513511e-03
-8.488074449620386019e+01 9.404188394448613764e+00 2.879944337173742305e-02
-8.499748166099442415e+01 9.621226555241284117e+00 9.519658940115784118e-02
-8.595377589137656571e+01 1.008770508782438036e+01 2.776247670002899848e-01
-8.527908650893985509e+01 8.820894881325283876e+00 1.370736077745675786e-04
-8.528222553508487636e+01 8.811559093715239044e+00 9.479541232430268791e-05
-8.527634440267021887e+01 8.805412542048841829e+00 9.154465620622667546e-05
-8.526610065565270702e+01 8.809102893146754099e+00 1.257639263211483220e-04
-8.518218692115250690e+01 9.489449273798721052e+00 2.629824167217549302e-01
-8.576780353538737245e+01 1.022594013552336811e+01 8.811649576127233985e-01
-8.550131818688188901e+01 1.001753228057244982e+01 2.357333160305104869e+00
-8.537535936013064486e+01 9.205670430296889251e+00 3.363391260360185098e-02
-8.506574458907851977e+01 1.008856613109080769e+01 1.077379453354221223e-01
-8.608469113536587258e+01 9.586035088452929287e+00 2.055014721284735210e-02
-8.599969471956360678e+01 9.622944750301225980e+00 9.371136973154199634e-02
-8.507549282612087893e+01 8.850557679536644073e+00 1.385807236171161588e-03
-8.508603855579998765e+01 9.489971486258582445e+00 1.900836668830985787e-01
-8.565700031630846922e+01 9.469068964898996299e+00 1.608555833743527397e-01
-8.551298304328226152e+01 9.899088715199976463e+00 1.676927217378185508e+00
-8.516391756526120105e+01 9.975245545525485369e+00 1.945097515486908513e-01
-8.589526205297751460e+01 1.045605047014191058e+01 1.566517995504110028e-01
-8.543634476779959641e+01 9.379131986616854988e+00 1.303273832708525259e-01
-8.515037858700901552e+01 9.918381757082748607e+00 2.312150214826308170e-01
-8.589773745797508298e+01 9.692940746051377232e+00 3.007537285661077142e-01
-8.537856621284045389e+01 1.007639325151611587e+01 8.205547532048202974e-01
-8.515727677309587307e+01 1.023244388448635078e+01 1.288442098946576131e-01
-8.614271884866521134e+01 9.693057161715884718e+00 3.894468400308030015e-02
-8.487328769328181011e+01 9.742770800417847710e+00 2.655535053841991469e-02
-8.536372632021158324e+01 9.156137348631270712e+00 2.059935252333610842e-02
-8.570520239424442366e+01 1.003273205931689382e+01 1.481094342466088842e-01
-8.661977550058095687e+01 1.031754466765072209e+01 1.495223770063252699e-03
-8.478143669607885613e+01 9.853993728870927171e+00 2.309397703898222881e-02
-8.483626250904261212e+01 9.927047717882331312e+00 8.918334597208343525e-03
-8.557184873615528886e+01 1.020686004111172451e+01 7.567203041182944956e-01
-8.651389064611670676e+01 1.000574744530043780e+01 1.687825922504537605e-03
-8.584830463708119908e+01 1.055153152875254285e+01 1.491224418160305432e-01
-8.499233542158191312e+01 9.389147928948203159e+00 8.399415712566944692e-02
-8.611126921182665228e+01 1.007839540722997285e+01 2.220155435945274924e-01
-8.606838741778477697e+01 1.043236941377721827e+01 6.192600975550402453e-02
-8.521257773710856043e+01 9.787176374818953306e+00 4.652807051454633802e-01
-8.639336736277704176e+01 1.010525247787711223e+01 1.505910450090886844e-02
-8.584896719834938494e+01 9.441908491751174637e+00 4.757828508473352369e-02
-8.481172234937159260e+01 9.896690371500612926e+00 1.351879557985415266e-02
-8.669406746868280322e+01 1.022643198050630886e+01 4.298627632773912547e-04
-8.584660310000911920e+01 1.036842079242939896e+01 1.706675146575271362e-01
-8.587001378189800960e+01 1.043677835407095955e+01 1.664784552136248097e-01
-8.526467382093808567e+01 9.888941450205098960e+00 6.842116239535650513e-01
-8.617318901817036192e+01 1.084988274048094858e+01 2.752608646738851153e-02
-8.565960044901211745e+01 9.878128036503465381e+00 2.051845673577674667e-01
-8.528148458376693952e+01 9.986444228806675483e+00 6.199424300477123229e-01
-8.646572904645655910e+01 9.961962703169110256e+00 2.850483822252441492e-03
-8.598229036186924645e+01 1.055134058845406564e+01 1.134479214227489124e-01
-8.541453593258060550e+01 1.022060811949025450e+01 4.797690731854261648e-01
-8.608804804202760863e+01 9.610230723427173771e+00 2.932341119089862044e-02
-8.608430825442849255e+01 9.618632100692085629e+00 3.508301170776875061e-02
-8.540633575408681111e+01 9.229198430125627794e+00 3.891000157990775338e-02
-8.546675822932651556e+01 9.284909725662158664e+00 5.523178881784927136e-02
-8.557494019871707280e+01 9.566368917506260061e+00 3.685627512680832996e-01
-8.545624166440023828e+01 9.475570981025486006e+00 2.435562353140952319e-01
-8.669845463635917326e+01 1.034038352029024743e+01 8.949527555780592862e-04
-8.658479103543155020e+01 1.018695603862720667e+01 1.485785949365995857e-03
-8.529315329826033576e+01 9.347456420715444025e+00 1.323725114423216775e-01
-8.651412251152322597e+01 1.053719638018980831e+01 6.824418354095558061e-03
-8.488405843276792950e+01 9.156061187916076705e+00 1.651154370268347396e-02
-8.516188421749775728e+01 9.765275453553776686e+00 3.696012975981844972e-01
-8.538244100180196483e+01 9.196406344100083174e+00 2.977028580108819281e-02
-8.485773226046256923e+01 9.931663125050327778e+00 1.028331850795518795e-02
-8.558424718939494369e+01 9.366641553947168575e+00 7.963793749404923794e-02
-8.498776324307696939e+01 9.498615512273447692e+00 9.467500711159555771e-02
-8.556455103631145676e+01 1.026416167008872193e+01 1.513799168897290159e-01
-8.609539941714017175e+01 9.936296407194245006e+00 2.521861865101551192e-01
-8.525860487276332833e+01 8.972148201850444593e+00 3.194515619538436380e-03
-8.587979881730896636e+01 1.050137938861671394e+01 1.644140587678652177e-01
-8.489733973197753869e+01 9.983474555915744730e+00 2.704311856041527462e-02
-8.663990979872752973e+01 1.025090822650329692e+01 9.456452085979885494e-04
-8.622776035889282298e+01 9.893145591420777762e+00 6.305241826794290294e-02
-8.584411673893053774e+01 9.911234554500820693e+00 2.527540760315150625e-01
-8.532224817316307508e+01 9.894568843443524386e+00 9.270360403696863427e-01
-8.510610270407563860e+01 8.861685080313320029e+00 1.320667850236170292e-03
-8.534002071218053231e+01 9.220478995889328289e+00 4.247865321547748818e-02
-8.623982202841060030e+01 9.836449173963822901e+00 4.004468869676792303e-02
-8.482955172220945883e+01 9.673184730327378134e+00 3.095460070066078512e-02
-8.602296580375889334e+01 1.080489965269853947e+01 3.880794934761747778e-02
-8.564999101047659735e+01 1.056039957250559347e+01 4.700238762963285938e-02
-8.632872150194745586e+01 9.929039688043406642e+00 2.147620647861068349e-02
-8.469032063855456727e+01 9.799643488120617363e+00 4.273307052005571871e-02
-8.560779351404003990e+01 9.498837844255159979e+00 2.323742720789539751e-01
-8.587763441638404061e+01 1.040660415361242208e+01 1.494226914252735627e-01
-8.569924389880141291e+01 9.313156072605194069e+00 2.527456084022092903e-02
-8.531622966256975360e+01 9.448963062575865379e+00 2.405776640982980885e-01
-8.598617395883641734e+01 1.090058318952704575e+01 2.388305344075346975e-02
-8.503487274675805452e+01 9.098605985910557692e+00 1.539267976485854394e-02
-8.513584866252435290e+01 9.693367505636242498e+00 2.701979931195672702e-01
-8.557698142483884851e+01 1.044176851392325922e+01 1.563557519159793907e-01
-8.526023529873864959e+01 8.941237416031139418e+00 2.137949120606818035e-03
-8.542528377165126585e+01 1.031586063662991748e+01 3.464821439930140801e-01
-8.486190010456142829e+01 9.744096128351467101e+00 2.427642572567900031e-02
-8.606357520439235032e+01 1.000737171126307956e+01 3.211998707146362375e-01
-8.500286885940411707e+01 9.048848196268973965e+00 9.921672153709596570e-03
-8.515937489018226358e+01 9.537569768956299043e+00 2.721461938307654371e-01
-8.671027281025969558e+01 1.022207913058474560e+01 3.335441709825384747e-04
-8.612261614966564593e+01 1.096851413770450456e+01 2.131169806463551614e-02
-8.582850274012380964e+01 9.891935217221512033e+00 2.236484507542595701e-01
-8.579984584213246990e+01 9.569838564052245644e+00 2.152189194102683278e-01
-8.461740259219857307e+01 9.726852662025684992e+00 4.587403557671539817e-02
-8.521945390871240988e+01 8.949107189896693626e+00 2.706239145277933387e-03
-8.632736458777293365e+01 1.030250850016657260e+01 2.452435565763814995e-02
-8.543022878617394156e+01 9.096532248903390183e+00 8.087976735621005275e-03
-8.491885588782346872e+01 9.281656703333112546e+00 3.484075423790621712e-02
-8.502118532286263530e+01 9.391967142009894687e+00 1.011636504501699091e-01
-8.510263787541903469e+01 9.860341193404916993e+00 1.875041315879568959e-01
-8.660280507950432138e+01 1.002949905198421376e+01 1.455829293134266165e-04
-8.455269231730532908e+01 9.493697811995629010e+00 2.475072143748281370e-02
-8.645425828677045388e+01 1.060121611252245621e+01 1.127724296904155689e-02
-8.537668499112209020e+01 1.000595105477650115e+01 1.254821990765931705e+00
-8.629985156981196326e+01 9.944479561607497686e+00 3.308186410258542182e-02
-8.674111600127206145e+01 1.019667912702046664e+01 1.455514261130867130e-04
-8.514038101705061479e+01 9.639553471916268990e+00 2.460824003272249483e-01
-8.483734696568410527e+01 9.755754155285170981e+00 2.082658724945191109e-02
-8.603607892291041992e+01 9.656377684876092715e+00 8.966595917497610646e-02
-8.581823614845619375e+01 9.573858804154614432e+00 2.049056948866175287e-01
-8.483754053178137156e+01 9.523876046079463364e+00 1.231703648349035361e-02
-8.549202338259658518e+01 1.040045714069142235e+01 1.919047921732924544e-01
-8.653063170227362377e+01 1.016182343360781459e+01 2.793382191475567242e-03
-8.533546481889756308e+01 1.015699698509491355e+01 4.573859747820167576e-01
-8.451198253555334361e+01 9.423954359520653412e+00 2.422342204795157466e-02
-8.658190510441129106e+01 1.024235298854899057e+01 1.761791137677986814e-03
-8.525404009880647038e+01 9.745413126543494897e+00 3.793465225283937370e-01
-8.633535080297652087e+01 1.044608102188733056e+01 1.733877813935624096e-02
-8.493880076854323136e+01 9.238018842005324416e+00 3.149246098609257555e-02
-8.503719364268185643e+01 9.404588262123310116e+00 1.149170771351644832e-01
-8.591651526038013742e+01 9.602390434621497661e+00 1.481075955528136368e-01
-8.661735286781927812e+01 1.039624696963737804e+01 2.160531328922533564e-03
-8.642316562198885777e+01 1.021977076203723378e+01 1.090520443177306863e-02
-8.501666343501136680e+01 1.007178359842808035e+01 8.136494739824109979e-02
-8.537295083926829875e+01 9.225569717444626505e+00 4.122558064612458217e-02
-8.557275414019441939e+01 1.042174266602046551e+01 1.832768614420882403e-01
-8.513821319315927383e+01 9.459196144229039760e+00 2.128897006946401105e-01
-8.528264045126424264e+01 1.030779636176536229e+01 1.678917502728999589e-01
-8.477545036895106989e+01 9.597452742274928283e+00 3.276468644459761687e-02
-8.627524797591891570e+01 1.033931402357553608e+01 3.354180065483325368e-02
-8.539760627713283725e+01 1.010136743608701693e+01 7.803271892207487292e-01
-8.615389062775010132e+01 1.086597690478306077e+01 2.673232450130664031e-02
-8.601265913471449664e+01 1.054275861117200286e+01 9.806351332320474568e-02
-8.606812160150059299e+01 9.868908163988999505e+00 2.501725343848211214e-01
-8.579381519322164706e+01 1.011583056424142590e+01 3.337994503960363679e-01
-8.610101486162430717e+01 9.814613977710259007e+00 1.500047969309977747e-01
-8.542100243662520143e+01 1.041706017355961045e+01 9.697598509085608720e-02
-8.605510891000794516e+01 1.012372520156537625e+01 2.489325748294070606e-01
-8.505202856447525050e+01 9.664800899449625504e+00 1.562023218687313975e-01
-8.447112649431068121e+01 9.538327450843082644e+00 4.422619798463872653e-02
-8.591512829075867330e+01 1.045902882856537985e+01 1.447490738121764431e-01
-8.575343840836551124e+01 9.872603393259009152e+00 9.115172820302951118e-02
-8.515602055722933983e+01 9.199010069976896631e+00 4.152268171758004972e-02
-8.493917728691592117e+01 9.836698828758647650e+00 4.406319181279481217e-02
-8.526771750805205841e+01 1.018189185704934019e+01 3.124831929044315504e-01
-8.536714219902341938e+01 9.898619654028607329e+00 1.170606253715607226e+00
-8.584422896651146573e+01 9.712660325164964803e+00 3.993836567472297538e-01
-8.508984872107353681e+01 8.790390980856132686e+00 7.137346460149782135e-04
-8.556752288137781193e+01 9.402510623634256604e+00 1.170604819041701355e-01
-8.598790021915539228e+01 1.092578958350230067e+01 2.280517750643821367e-02
-8.550173422405062240e+01 1.050223424233918834e+01 2.460468486403134813e-02
-8.503494501346224865e+01 1.005476421323404246e+01 9.167672009457657201e-02
-8.475359499262545171e+01 9.867784890612147919e+00 3.160684302647910615e-02
-8.471974083782826881e+01 9.802565767095741123e+00 3.769304842507236603e-02
-8.546303122205091540e+01 9.452637296818222623e+00 2.083238935935360359e-01
-8.621787979106321131e+01 1.078372335514802671e+01 3.059255881183622211e-02
-8.516286922367932277e+01 9.038282586828625398e+00 8.836262174458141619e-03
-8.579372170828266064e+01 1.062108404045867971e+01 8.457025435293449855e-02
-8.533846121576503663e+01 9.838284333788298142e+00 6.927073114556083766e-01
-8.530269084802154111e+01 1.006029597760027094e+01 4.972894479072047513e-01
-8.632786425500719929e+01 1.075557909667351097e+01 2.342008164526013583e-02
-8.581252469714632980e+01 9.870549829845707279e+00 2.179916377932435978e-01
-8.503233413572607446e+01 9.640540406291661313e+00 1.318240536806093988e-01
-8.541431231942857494e+01 9.521939062850176327e+00 3.189834429970823670e-01
-8.551922105160473109e+01 9.879106168781405017e+00 1.323503068881290989e+00
-8.588084902107549112e+01 1.008177837673144062e+01 1.160566592513261885e-01
-8.609087272727664697e+01 9.870664095729869913e+00 2.131787876534760595e-01
-8.601074746861934273e+01 9.735161648953734925e+00 1.924535845275533730e-01
-8.587228849430906052e+01 1.060342720467116528e+01 1.215744858701751641e-01
-8.665745729600942582e+01 1.017914160657791989e+01 5.229376420693914807e-04
-8.509078948928197406e+01 8.910680111229622113e+00 2.416113009932303358e-03
-8.496083707414936725e+01 9.386468847579113373e+00 6.654035742377574503e-02
-8.538643350075111016e+01 1.011463638690121236e+01 6.581050439686506603e-01
-8.610666855121060337e+01 9.748220890287372598e+00 9.439305434555568530e-02
-8.655156309345287013e+01 1.033330282262628330e+01 2.985464980967180923e-03
-8.542195286820343370e+01 9.814578144443874663e+00 5.048934031012451973e-01
-8.554895607715890549e+01 1.045458931981130668e+01 1.215170661775632627e-01
-8.569773952388803195e+01 1.053340133882038820e+01 1.077019801673609889e-01
-8.530601764461410141e+01 9.103357829776252075e+00 1.376574413291892576e-02
-8.492457535251632805e+01 1.006014519735567880e+01 3.926802867815929604e-02
-8.546900633354620425e+01 1.001095166975730955e+01 2.158648946671303914e+00
-8.646717357986601371e+01 1.027894957311276691e+01 6.664254071401169363e-03
-8.499538573310142908e+01 9.795433813870875639e+00 8.497742010859035688e-02
-8.543420332908459613e+01 1.033280906007285793e+01 3.111907260575309531e-01
-8.483839410144031490e+01 9.197509338365749798e+00 1.620044216874829551e-02
-8.604903569968870158e+01 1.034360461659610486e+01 1.050412265810487522e-01
-8.484676143001803439e+01 9.406080421165917471e+00 1.605177809044423115e-02
-8.489017858098894465e+01 9.301240045388121658e+00 3.077108760250835129e-02
-8.547620113726465263e+01 9.994380760438223987e+00 2.282075759353588307e+00
-8.654658042911508176e+01 1.038222686536491146e+01 3.395761907897597558e-03
-8.636084919366938095e+01 1.028998359633729898e+01 1.868128928369023473e-02
-8.544001369395174095e+01 1.007134717160560911e+01 1.378040551056971763e+00
-8.571177475735257190e+01 1.013361304104269678e+01 1.240732344761263706e+00
-8.505102733367132828e+01 9.504474085697088626e+00 1.592122665654827629e-01
-8.618567970373383957e+01 1.023110652570652057e+01 9.175599166660458605e-02
-8.615121395998667708e+01 1.060201020495080471e+01 5.045528436623449020e-02
-8.568401103348293191e+01 9.430804643917149122e+00 1.023716872153833807e-01
-8.484009190652780319e+01 9.837734470670559617e+00 6.632973573495261170e-03
-8.564858795198408359e+01 1.049517940688163975e+01 1.210020409785868001e-01
-8.565132303147332493e+01 1.036593711323649103e+01 1.731255682065379331e-01
-8.511062913443916500e+01 9.825953391124775393e+00 2.370543345820352588e-01
-8.552247038796743084e+01 9.510864972195625100e+00 2.863558059788590682e-01
-8.548636642297542210e+01 1.000451407761627287e+01 2.331517487899821273e+00
-8.591036940371111541e+01 1.082630388431679869e+01 2.516400760996413341e-02
-8.669544211752101148e+01 1.026170309155874705e+01 5.451776101308481760e-04
-8.552669374974192351e+01 9.381453338040049772e+00 1.081264053716765594e-01
-8.593228858537750625e+01 1.030996239848057705e+01 4.489113165096785679e-02
-8.588673549140462171e+01 9.596381093393301143e+00 1.695868369007542953e-01
-8.583484200581759183e+01 1.054510172138277291e+01 1.520763871128326949e-01
-8.485313354298710919e+01 9.536286024882883794e+00 1.153572019762893509e-02
-8.599153299451437249e+01 9.490528857498883752e+00 1.815802993714932256e-02
-8.625698086806472986e+01 1.011410780660077968e+01 6.708712950155522325e-02
-8.506686758598711151e+01 9.492059854367624894e+00 1.725303297175985462e-01
-8.499420141355523128e+01 9.994702836081833297e+00 7.031330836839114196e-02
-8.523260495101109768e+01 1.001522799303960731e+01 3.294492925009741002e-01
-8.594830223507587164e+01 1.083916551167446407e+01 2.762182784524632936e-02
-8.616625129325625210e+01 1.008052649122409505e+01 1.515116054153270997e-01
-8.575532641131695755e+01 9.360473013779827767e+00 3.228433315350227872e-02
-8.551577429462545865e+01 9.966899686914079126e+00 2.413244144665148472e+00
-8.528471216657753473e+01 9.224282801890860028e+00 4.887863129815877422e-02
-8.634059303769554106e+01 1.064085032808324804e+01 1.981587464038682064e-02
-8.535211733270342904e+01 9.048456304567931596e+00 5.949299694403088756e-03
-8.531393537388265713e+01 9.610046510039433443e+00 3.480523670771268341e-01
-8.676856786032722368e+01 1.025999816502371331e+01 2.151643984317812492e-04
-8.496953253700247899e+01 9.654166305890068855e+00 7.340842175534621761e-02
-8.625089074565192959e+01 1.012387157969381590e+01 7.037560235988835067e-02
-8.625277394825661759e+01 9.891465030150968119e+00 4.712548901187892103e-02
-8.440878154347785767e+01 9.503150704346047917e+00 5.387465832869271776e-02
-8.576520748652228576e+01 1.024520248284537161e+01 8.319674360334977647e-01
-8.521339759831546701e+01 9.400983960937477235e+00 1.865278644312566014e-01
-8.587871168047280435e+01 1.081411634183660553e+01 2.227093257860385256e-02
-8.474416234606897547e+01 9.711482043980815604e+00 3.440286360592752918e-02
-8.571097630610336182e+01 9.227238495724943590e+00 4.519889137359615026e-03
-8.642885684894554288e+01 1.025490057795535748e+01 1.006651293898646986e-02
-8.557515738224554980e+01 1.057593607698178495e+01 3.597611520664318469e-02
-8.516227479002985490e+01 9.901807551844594713e+00 2.897637843490634690e-01
-8.549676956807124384e+01 9.584455664521470908e+00 4.094985405280703317e-01
-8.545993832251242850e+01 9.857605580237775555e+00 1.083214963375682238e+00
-8.493833445230241352e+01 9.872094635606242008e+00 4.182741350449339229e-02
-8.579412331526367552e+01 9.364800227950725642e+00 2.489346705435238963e-02
-8.465567024348995062e+01 9.710877032853121094e+00 4.076759514151586522e-02
-8.549223589483185037e+01 9.198721051651999048e+00 2.036263079537881798e-02
-8.606456698685208551e+01 1.094790364061460863e+01 2.303271159294792425e-02
-8.544551661352942062e+01 1.044358794415294156e+01 6.573312332439136541e-02
-8.541423427740406282e+01 1.014599635093927255e+01 6.142306658153774412e-01
-8.538321572542797355e+01 1.021288426750919243e+01 4.712877548364888258e-01
-8.486550161835414485e+01 9.264649943277142086e+00 2.311561337586033951e-02
-8.541126732793179599e+01 1.018954271952687840e+01 5.075873416982671360e-01
-8.586166272316472714e+01 1.026748949546929879e+01 2.281083393061290876e-01
-8.565758778187341704e+01 9.924270950164673977e+00 1.657861135645982975e-01
-8.534912871023243497e+01 1.038611549897348851e+01 1.014877170898399739e-01
-8.563364327110947727e+01 9.476464674006807698e+00 1.848027084574647705e-01
-8.590255923801723270e+01 1.078301371974384537e+01 3.424122154488971892e-02
-8.539516828796806180e+01 9.552030621274232303e+00 3.536804074294480071e-01
-8.485516578510730312e+01 9.767693579925794012e+00 1.947584751235878486e-02
-8.615504610123711871e+01 9.661289886176637864e+00 2.065985084344410666e-02
-8.559241598245856153e+01 9.330093977370760072e+00 5.362531425541908203e-02
-8.486558918605291524e+01 9.346915196664980385e+00 2.603348727153302622e-02
-8.462226939123449654e+01 9.353868436258840902e+00 4.636695034278055794e-03
-8.576487733419843096e+01 9.280599551031439631e+00 7.246987077119392343e-03
-8.622032585535370686e+01 1.046701958624876383e+01 3.242239930850189522e-02
-8.603057146252281484e+01 1.082641945005098627e+01 3.475151876494329134e-02
-8.595619555814064938e+01 1.076686509039041617e+01 4.613725504105817277e-02
-8.532255158396382910e+01 8.899097493309264806e+00 6.401122837138705120e-04
-8.545611973413065243e+01 1.042671935138971939e+01 1.030126112874292788e-01
-8.596447613866976667e+01 1.066286512166900735e+01 8.947411059675021427e-02
-8.591837382176834126e+01 1.071410523827545092e+01 6.392937460311251541e-02
-8.602956429756865475e+01 1.041623740048894931e+01 7.102642415635479489e-02
-8.513921653255376043e+01 9.380584652140520063e+00 1.491675895619883618e-01
-8.522972234279136217e+01 1.003573286443254453e+01 2.919922095214312896e-01
-8.574317045893089073e+01 1.054246337672686096e+01 1.232450261381887041e-01
-8.576706896594271257e+01 9.531990419463534536e+00 1.822348223756230789e-01
-8.648600883790312821e+01 1.036600394782381329e+01 5.569831115694099180e-03
-8.458641216047337252e+01 9.400631966678371754e+00 1.099661097826395637e-02
-8.577118666948165071e+01 1.044221475115027964e+01 1.900247126144646859e-01
-8.597295007648197895e+01 1.060968208025078496e+01 1.071756383571872834e-01
-8.472477779073626891e+01 9.364651625459231354e+00 1.329688758869695042e-03
-8.577386632176784076e+01 1.041417591852363955e+01 1.989989417326195886e-01
-8.621344410689280835e+01 1.081186982139198527e+01 2.904052056047185318e-02
-8.583111725788633350e+01 9.729268130716651086e+00 4.292829510802597670e-01
-8.648551595057396923e+01 1.000054367091160223e+01 2.858748673127526740e-03
-8.634697050739832491e+01 1.000372951762074081e+01 2.210825233099662085e-02
-8.489079114995929842e+01 9.125451006520906461e+00 1.451966091201235647e-02
-8.550709975062606816e+01 9.975605440494520693e+00 2.454939130360999311e+00
-8.620355765811407878e+01 1.050754129334301190e+01 3.458496853323744791e-02
-8.598019560884388568e+01 9.550932995437610984e+00 5.460491454627922070e-02
-8.541126444697808040e+01 9.239621487393918642e+00 4.251344512232734657e-02
-8.527666660042142155e+01 9.046420058390657104e+00 7.789815077305653479e-03
-8.561438513735973288e+01 1.000159077949124509e+01 1.383234083429657035e+00
-8.490679224391327296e+01 9.288176763248367607e+00 3.297752835550036427e-02
-8.618433747207191686e+01 1.038744097254935284e+01 4.955284364481378490e-02
-8.594530520513053773e+01 1.061220719235043219e+01 1.131042064215118242e-01
-8.587352906810653508e+01 1.087182729478199406e+01 1.545438551894181591e-02
-8.546665362972196078e+01 9.621280876882634558e+00 4.461634512520574747e-01
-8.589918809235993535e+01 9.460559199080082138e+00 3.853047158787680643e-02
-8.487057903190208208e+01 9.253021432963585369e+00 2.302541788540987677e-02
-8.657181271984548232e+01 1.034175113063545126e+01 2.492460078195429026e-03
-8.485512068378226047e+01 9.730360307984259549e+00 2.547286473586695896e-02
-8.540552940671700810e+01 1.049473187895056370e+01 5.002460077459101179e-02
-8.463353946894662272e+01 9.414476693354036030e+00 6.736960553080223284e-03
-8.470621645573727676e+01 9.610023350765702688e+00 3.147011314836192092e-02
-8.452970666830231039e+01 9.453963208649511785e+00 2.450613510861873387e-02
-8.542735267941463917e+01 9.320007782826770892e+00 8.423649150448228595e-02
-8.617092486180071376e+01 1.035904867831039233e+01 6.055014514638103196e-02
-8.488903137436939517e+01 9.114525102518225452e+00 1.363712696637287697e-02
-8.531823377644103346e+01 1.007624822041652024e+01 5.179676825224791559e-01
-8.531058674295226751e+01 1.030731878242512778e+01 2.044684091515853175e-01
-8.549782056057770774e+01 1.045475965010118991e+01 8.261561518345587884e-02
-8.531929690525915078e+01 9.508636270183504990e+00 3.053199975089423979e-01
-8.562425528537008290e+01 1.061201907903212849e+01 2.999581822807827897e-02
-8.540246821483945894e+01 9.505199725545050882e+00 2.988892120038161293e-01
-8.602424055328732777e+01 1.093595441215896713e+01 2.343228159829294222e-02
-8.530199645707041611e+01 9.608891342383238054e+00 3.416289920019885962e-01
-8.525289644799090638e+01 8.871260501676900390e+00 7.151204520784084240e-04
-8.573743793523567547e+01 9.749790123271059983e+00 4.211057222987816817e-01
-8.569702883631158841e+01 1.037398372105509559e+01 2.225999650651562800e-01
-8.514346112713293735e+01 9.204998384839061742e+00 4.333068499791659783e-02
-8.579059936710658008e+01 1.066028355058482902e+01 5.595379850916055303e-02
-8.601851905815969701e+01 1.037589844857426336e+01 8.431326134130051608e-02
-8.516859497822814262e+01 9.542482110481007140e+00 2.797190486908927021e-01
-8.568364358742174147e+01 1.029381281964595907e+01 5.708510642335214991e-01
-8.640174824182851410e+01 1.004824757943736202e+01 1.229141161311959538e-02
-8.497822840215656015e+01 9.916870444258812256e+00 6.044261669524360336e-02
-8.520233128731425154e+01 9.902879868782207495e+00 4.246179191336884595e-01
-8.553217323976575415e+01 9.936433346960340529e+00 2.077751904205546118e+00
-8.495969305128474502e+01 9.483469497168929507e+00 7.078020336005190483e-02
-8.609300203467984147e+01 1.037358848413354906e+01 7.810743371252233669e-02
-8.468485616089304813e+01 9.735721882745790978e+00 3.996868321249037737e-02
-8.507569547082448480e+01 9.528454440806136461e+00 1.892318149591802334e-01
-8.632602835529309004e+01 1.050451118050732013e+01 1.822967198136324699e-02
-8.580160361749189235e+01 9.785493147239327172e+00 4.128414209593482820e-01
-8.515638085541152691e+01 1.007352523013092593e+01 1.722912624513324442e-01
-8.575356487818025641e+01 1.027818465366820178e+01 7.015110452010242525e-01
-8.650967924160674727e+01 1.043121559367438067e+01 5.022437954903346755e-03
-8.506617077628136769e+01 9.354347661902131961e+00 1.048588900717378758e-01
-8.590711016880641182e+01 1.039125275878787136e+01 1.134213958213639573e-01
-8.600280039373188856e+01 1.055552640921912655e+01 1.036209574042576825e-01
-8.659109359867264288e+01 1.016836187216716958e+01 1.307678540294082530e-03
-8.549216350311291990e+01 1.047158635741813804e+01 5.082871657706442697e-02
-8.510244962403247371e+01 1.012708887388750867e+01 1.274272690699689847e-01
-8.664453893579960209e+01 1.036066513862883731e+01 1.488753091837435871e-03
-8.601733165309738638e+01 1.006559654959707117e+01 3.345411457625188101e-01
-8.488909503535367662e+01 9.478960401808697256e+00 2.311663043740339041e-02
-8.612442831846468039e+01 1.084864536131161650e+01 2.970577025361460788e-02
-8.590152064681826971e+01 9.596792081313697764e+00 1.562128134687030545e-01
-8.479103239436739159e+01 9.582165765652099765e+00 3.057358175105623702e-02
-8.599709499076568875e+01 1.059844895993468583e+01 1.012974161922993999e-01
-8.521428624029907439e+01 9.815056560165722033e+00 5.042539112964385950e-01
-8.473817779704634745e+01 9.749321449620115487e+00 3.421472858229285263e-02
-8.626893088417911315e+01 1.029137853875862696e+01 4.095435958880466049e-02
-8.532160424782415475e+01 9.551299978765802834e+00 3.387319604895555614e-01
-8.573819100208930877e+01 9.378775357713854177e+00 4.529941054159099256e-02
-8.631397147754552179e+01 1.055464531823245267e+01 2.027463646022711896e-02
-8.491976289973260350e+01 9.183902920564745997e+00 2.159366326233458019e-02
-8.621544663228365835e+01 1.087129486637949860e+01 2.491930661374696515e-02
-8.542130559215513586e+01 1.037808848588192845e+01 1.831643664020865536e-01
-8.517919987285883110e+01 9.454490458375651940e+00 2.302715289865802928e-01
-8.557059864791533244e+01 1.014392669678319692e+01 1.542612358815565132e+00
-8.448278670435600191e+01 9.649151790026884612e+00 4.922270453651487326e-02
-8.478772858956190817e+01 9.885683777017641560e+00 2.090345348041562981e-02
-8.588543535498942560e+01 9.443882821993954124e+00 3.513216982960142704e-02
-8.477050588578717338e+01 9.360399657587308297e+00 5.530156894186941119e-03
-8.504573245120644742e+01 9.281309082589510595e+00 6.330699144141785362e-02
-8.587279848730617005e+01 9.403435870150454789e+00 2.095732162807713989e-02
-8.660402714081493514e+01 1.035082760019232495e+01 1.986733104892968518e-03
-8.513751320760447072e+01 1.001881762916955054e+01 1.439419162621700943e-01
-8.453408217601190699e+01 9.487705473015070723e+00 2.725267122059062477e-02
-8.535317821685936224e+01 1.034631489354531908e+01 1.815873741811316888e-01
-8.563697912625231368e+01 9.384601229143328283e+00 7.838712357972629774e-02
-8.588916539560439389e+01 1.026041262836932333e+01 1.081966788217214592e-01
-8.519281481469555217e+01 1.007598789101447068e+01 2.112543049780211957e-01
-8.623702721353272693e+01 1.035679847935935705e+01 4.113644738425963066e-02
-8.498729668718802088e+01 9.660866824419272803e+00 8.966526259101764706e-02
-8.541259951632098080e+01 9.295239964849931980e+00 7.115984652190118775e-02
-8.567783189724677584e+01 1.044585079554824247e+01 1.726401595237516406e-01
-8.537389770352598362e+01 9.882012752037603320e+00 1.096364832924842769e+00
-8.587137642681032901e+01 1.073955724615308860e+01 4.316983385033053289e-02
-8.515352154261589135e+01 1.013543750096276774e+01 1.709763024326673986e-01
-8.450280370471180902e+01 9.660240579285781948e+00 4.858388159234542508e-02
-8.461627905769148583e+01 9.416239457023413806e+00 8.556733376237673355e-03
-8.514512433565009530e+01 9.248069603858468213e+00 6.188618579742140302e-02
-8.623338763104086979e+01 1.046681813828348240e+01 3.043930557357069078e-02
-8.606244942276680376e+01 1.051752519378862871e+01 7.243109295059604880e-02
-8.618304800240677821e+01 1.030220143168094360e+01 7.214606981790211426e-02
-8.540569493227104658e+01 8.971974667125689251e+00 1.169097357764544787e-03
-8.489072456738580286e+01 9.847912401113619651e+00 2.079533297921649579e-02
-8.559346754023458459e+01 1.018286802713673644e+01 1.214879593862523866e+00
-8.484492440096815358e+01 9.782555319364915292e+00 1.632367325139297623e-02
-8.636076050095680046e+01 1.025373595030310270e+01 2.002452780332844920e-02
-8.615219107721138414e+01 1.057551334042522839e+01 4.912276418401995831e-02
-8.574873409974797767e+01 9.529823772665954706e+00 1.922378026970033571e-01
-8.545944304540880410e+01 1.007368335465597475e+01 1.542773365099998184e+00
-8.612613593639386522e+01 9.609282719551895724e+00 1.303148283410448909e-02
-8.506815037281427294e+01 8.865698206176954699e+00 1.703115732242699472e-03
-8.454651943881985687e+01 9.587195735385915185e+00 3.584688707047061634e-02
-8.586284228743178915e+01 1.027885843067515204e+01 2.085225492003053571e-01
-8.532215047688887921e+01 8.936314525762611538e+00 1.354884427846496939e-03
-8.602278159957705839e+01 1.055260246824046355e+01 9.379112447334493619e-02
-8.460585820127704437e+01 9.532453876490787792e+00 2.222405399082867661e-02
-8.564770639246826534e+01 9.727137251919183214e+00 4.009177421230826210e-01
-8.614235212635557559e+01 1.062426835141344839e+01 5.270310431063929962e-02
-8.613228277302727065e+01 1.016306352384529887e+01 1.588986758350611483e-01
-8.549703480241794296e+01 9.266715333194737170e+00 4.138032119925647706e-02
-8.527533340880535206e+01 9.177400903100890517e+00 3.132717164067168325e-02
-8.572301775368110555e+01 9.370269962187707691e+00 4.490080093926535065e-02
-8.564026161502603429e+01 9.942567428759545578e+00 2.959418254884776389e-01
-8.481739984624648798e+01 9.804912798866112666e+00 1.542555423387630305e-02
-8.597699114911671359e+01 1.080726265578748446e+01 3.659694120750316831e-02
-8.546107602832779548e+01 9.943891979000220260e+00 2.119316251546219831e+00
-8.480098514803606236e+01 9.588772185018660466e+00 3.055945622667942049e-02
-8.657068212329626533e+01 1.012689843789199351e+01 1.443308568768699590e-03
-8.503078169287718424e+01 9.787271584366393995e+00 1.224739709094493922e-01
-8.461323192858013442e+01 9.669269886648077517e+00 3.943102084027068355e-02
-8.546026142024221883e+01 1.005510896694965872e+01 1.745544631021820559e+00
-8.439295592439211191e+01 9.521569519323458408e+00 5.955315621581053903e-02
-8.583197087293289940e+01 1.088802021834223943e+01 1.505119276004693828e-02
-8.631569107297774224e+01 9.914718750988852136e+00 2.411995420285898556e-02
-8.582966553339556981e+01 1.005936372665660805e+01 1.867841187441287576e-01
-8.480491494659067087e+01 9.137291673167965200e+00 1.264198450826823500e-02
-8.562908096094072619e+01 1.062864920715547257e+01 3.649486498601454271e-02
-8.482563976381527482e+01 9.087960651620551999e+00 1.155086228669455553e-02
-8.522573360500693695e+01 9.666688736396768178e+00 2.996008625101474476e-01
-8.554553452504634947e+01 9.180545615178775876e+00 1.262594665816409341e-02
-8.512219737777033401e+01 9.525318806319319265e+00 2.363597909985557799e-01
-8.443009539527513141e+01 9.604362140242784562e+00 5.464416728810857909e-02
-8.562769991297439276e+01 1.068991114226070138e+01 5.814521560546653117e-02
-8.457279322939731969e+01 9.490560891673418098e+00 2.125035679320931917e-02
-8.582650692864892505e+01 1.081267904862352580e+01 1.447301850608189062e-02
-8.554199448859655774e+01 1.017895845351873518e+01 9.108840491553341634e-01
-8.583220022299661878e+01 1.063925904143988532e+01 8.754502235569888713e-02
-8.566078325916946312e+01 1.062790001174437116e+01 1.882608970513405255e-02
-8.525223232697462095e+01 9.380918852510319539e+00 1.678509247082533851e-01
-8.635586706459335460e+01 9.895800412751151853e+00 1.187401529216939623e-02
-8.521839346720204844e+01 8.923881642045358831e+00 1.885747453025117754e-03
-8.521449548631635196e+01 1.019117630705327215e+01 2.202233227049827657e-01
